ply
format ascii 1.0
comment Created by CloudCompare v2.10-alpha
comment Created 19/07/2019 15:06
obj_info Generated by CloudCompare!
element vertex 753
property float x
property float y
property float z
property uchar red
property uchar green
property uchar blue
property float nx
property float ny
property float nz
end_header
66.772 911.732 705.127 76 76 76 -0.0840455 0.229557 0.96966 
67.0908 911.777 705.126 89 89 89 -0.144672 0.261472 0.954307 
67.3693 911.791 705.229 75 75 75 -0.190771 0.273118 0.942875 
67.6432 911.802 705.346 65 65 65 -0.255384 0.278212 0.925947 
67.9175 911.813 705.462 86 86 86 -0.308626 0.282298 0.908327 
68.2352 911.855 705.479 98 98 98 -0.298809 0.284233 0.911002 
68.4954 911.856 705.631 72 72 72 -0.184854 0.275227 0.94344 
68.7819 911.876 705.725 62 62 62 -0.0354054 0.247838 0.968154 
69.0923 911.911 705.768 80 80 80 0.0148977 0.175335 0.984396 
69.452 911.979 705.713 111 111 111 0.0508072 0.111776 0.992434 
69.8084 912.043 705.672 110 110 110 0.0393239 0.049952 0.997977 
70.1543 912.099 705.661 97 97 97 -0.0191288 -0.0130881 0.999731 
70.4697 912.134 705.717 62 62 62 -0.0988941 -0.0738864 0.992351 
70.7743 912.162 705.799 43 43 43 -0.194648 -0.100423 0.975719 
71.1011 912.203 705.841 37 37 37 -0.421479 -0.0898233 0.902379 
71.468 912.267 705.814 32 32 32 -0.647854 -0.10773 0.754108 
71.6552 912.223 706.122 34 34 34 -0.768127 -0.0856702 0.63454 
71.6601 912.073 706.754 34 34 34 -0.780402 0.0124753 0.625153 
71.9464 912.091 706.871 39 39 39 -0.702977 0.169263 0.690778 
54.586 910.426 703.684 115 115 115 -0.0899285 0.115622 0.989214 
54.8654 910.459 703.651 99 99 99 -0.111659 0.102256 0.988472 
55.1431 910.476 703.68 89 89 89 -0.148885 0.0869489 0.985024 
55.4193 910.486 703.737 93 93 93 -0.166227 0.0577668 0.984394 
55.6967 910.504 703.764 80 80 80 -0.167872 0.0335745 0.985237 
55.9739 910.522 703.791 111 111 111 -0.141066 0.023699 0.989717 
56.251 910.54 703.822 115 115 115 -0.119187 0.0278474 0.992481 
56.5286 910.56 703.844 94 94 94 -0.0950315 0.0273079 0.9951 
56.8057 910.579 703.875 92 92 92 -0.0879565 0.0271471 0.995754 
57.084 910.601 703.893 102 102 102 -0.095434 0.0318113 0.994927 
57.3644 910.628 703.895 78 78 78 -0.141981 0.0329395 0.989321 
57.6409 910.645 703.935 101 101 101 -0.210066 0.0152562 0.977568 
57.9168 910.66 703.982 90 90 90 -0.26329 -0.0157731 0.964588 
58.1955 910.682 704.006 115 115 115 -0.311381 -0.0768681 0.947171 
58.4646 910.685 704.104 105 105 105 -0.29009 -0.132345 0.947804 
58.7312 910.686 704.213 86 86 86 -0.214032 -0.166761 0.962487 
59.0013 910.694 704.294 103 103 103 -0.110434 -0.184884 0.976536 
59.2793 910.716 704.321 79 79 79 -0.0439554 -0.193641 0.980087 
59.5597 910.742 704.338 75 75 75 -0.00806022 -0.187688 0.982196 
59.8319 910.755 704.405 83 83 83 0.0407276 -0.164074 0.985607 
60.1046 910.769 704.469 129 129 129 0.0602141 -0.112475 0.991828 
60.4052 910.822 704.387 132 132 132 0.0824886 -0.0494932 0.995362 
60.7036 910.87 704.329 153 153 153 0.0337536 0.0153426 0.999312 
61.0069 910.922 704.258 163 163 163 -0.0281786 0.0407024 0.998774 
61.2816 910.936 704.329 192 192 192 -0.0411961 0.0433087 0.998212 
61.4105 910.774 705.044 198 198 198 -0.0328118 0.0518639 0.998115 
61.7141 910.828 704.969 178 178 178 -0.0178059 0.0576075 0.998181 
62.1502 911.029 704.36 187 187 187 0.0506625 0.05713 0.99708 
62.456 911.077 704.316 168 168 168 0.121389 0.0256143 0.992274 
62.7434 911.103 704.35 124 124 124 0.0516523 -0.0284615 0.998259 
63.0409 911.139 704.35 86 86 86 -0.0466365 -0.0661587 0.996719 
63.3189 911.155 704.426 82 82 82 -0.139313 -0.0495081 0.98901 
63.6035 911.177 704.48 72 72 72 -0.227597 -0.0202574 0.973545 
63.8837 911.194 704.551 68 68 68 -0.348918 0.0242837 0.936839 
64.157 911.206 704.647 49 49 49 -0.435465 0.0755538 0.89703 
64.4398 911.226 704.712 49 49 49 -0.484905 0.134615 0.864145 
64.6564 911.187 704.986 50 50 50 -0.477938 0.199266 0.855493 
64.9277 911.198 705.084 81 81 81 -0.374154 0.260864 0.88992 
65.1646 911.181 705.285 88 88 88 -0.290325 0.290325 0.911824 
65.4601 911.213 705.313 94 94 94 -0.220712 0.311845 0.924142 
65.7886 911.272 705.253 109 109 109 -0.174963 0.328931 0.928005 
66.0553 911.28 705.37 73 73 73 -0.13284 0.335524 0.932619 
66.3597 911.317 705.387 78 78 78 -0.113428 0.362151 0.925192 
66.685 911.37 705.354 79 79 79 -0.12331 0.375473 0.918594 
67.0348 911.439 705.268 74 74 74 -0.188417 0.41627 0.889504 
67.4131 911.527 705.121 89 89 89 -0.229788 0.437048 0.86959 
67.6441 911.507 705.342 63 63 63 -0.274312 0.442883 0.853585 
67.7993 911.434 705.738 79 79 79 -0.305846 0.442468 0.843018 
68.1524 911.502 705.666 71 71 71 -0.266891 0.431602 0.861678 
68.4213 911.511 705.792 52 52 52 -0.178546 0.413705 0.892731 
68.727 911.544 705.839 60 60 60 0.0189955 0.33812 0.940911 
69.0586 911.594 705.833 90 90 90 0.0906188 0.251435 0.963623 
69.4497 911.682 705.709 112 112 112 0.136243 0.168741 0.976199 
69.8464 911.77 705.584 104 104 104 0.131754 0.0985188 0.986375 
70.1804 911.817 705.598 95 95 95 0.0669222 0.0244319 0.997459 
70.488 911.847 705.669 90 90 90 -0.0280661 -0.0363819 0.998944 
70.8059 911.883 705.725 72 72 72 -0.20188 -0.125699 0.971311 
71.1317 911.922 705.769 42 42 42 -0.415417 -0.185116 0.890596 
71.465 911.966 705.805 33 33 33 -0.620166 -0.243356 0.745769 
71.8042 912.012 705.834 34 34 34 -0.748607 -0.243258 0.616777 
71.8275 911.876 706.437 39 39 39 -0.768561 -0.256187 0.586244 
71.974 911.814 706.805 46 46 46 -0.724814 -0.264866 0.635996 
72.1565 911.774 707.105 46 46 46 -0.487967 -0.335378 0.80586 
72.445 911.794 707.22 73 73 73 -0.0802146 -0.263562 0.961302 
54.6061 910.147 703.651 111 111 111 -0.0732506 0.0513847 0.995989 
54.8845 910.172 703.646 86 86 86 -0.0903773 0.0591358 0.99415 
55.1617 910.188 703.679 93 93 93 -0.123341 0.0657051 0.990187 
55.4373 910.198 703.74 106 106 106 -0.142798 0.0592091 0.987979 
55.7129 910.21 703.792 93 93 93 -0.152617 0.0547557 0.986767 
55.9893 910.227 703.823 114 114 114 -0.129903 0.0586288 0.989792 
56.2673 910.25 703.832 121 121 121 -0.113191 0.0674574 0.991281 
56.5446 910.271 703.852 124 124 124 -0.090755 0.0638646 0.993823 
56.8203 910.287 703.894 126 126 126 -0.093588 0.0665264 0.993386 
57.0959 910.303 703.935 91 91 91 -0.119747 0.0825441 0.989367 
57.3749 910.328 703.943 75 75 75 -0.166556 0.0984749 0.981102 
57.6529 910.35 703.964 91 91 91 -0.212418 0.104324 0.971594 
57.9284 910.366 704.009 95 95 95 -0.235088 0.0978473 0.967036 
58.1986 910.373 704.094 118 118 118 -0.246414 0.0662942 0.966895 
58.4721 910.386 704.152 113 113 113 -0.209707 0.0248805 0.977448 
58.7471 910.404 704.197 101 101 101 -0.1461 -0.00780685 0.989239 
59.0203 910.418 704.255 103 103 103 -0.0964467 -0.0432347 0.994399 
59.2987 910.441 704.28 94 94 94 -0.0802218 -0.0847413 0.993168 
59.5755 910.461 704.318 82 82 82 -0.0650497 -0.110699 0.991723 
59.85 910.478 704.37 97 97 97 -0.025515 -0.116481 0.992865 
60.1292 910.501 704.398 140 140 140 0.0161177 -0.0870357 0.996075 
60.4228 910.544 704.354 136 136 136 0.0545284 -0.0438366 0.997549 
60.725 910.596 704.277 160 160 160 0.0133488 -0.0400465 0.999109 
61.0114 910.625 704.286 181 181 181 -0.0535736 -0.071067 0.996032 
61.2873 910.641 704.349 208 208 208 -0.0589086 -0.0833612 0.994777 
61.5161 910.603 704.62 186 186 186 -0.0222644 -0.0646728 0.997658 
61.8647 910.703 704.367 184 184 184 0.00308533 -0.0524506 0.998619 
62.1655 910.746 704.334 186 186 186 0.0718989 -0.0311204 0.996926 
62.4748 910.797 704.275 169 169 169 0.139743 -0.0352197 0.989561 
62.7648 910.826 704.298 147 147 147 0.0608163 -0.0330755 0.997601 
63.0562 910.855 704.322 90 90 90 -0.0468611 -0.0218685 0.998662 
63.348 910.884 704.347 79 79 79 -0.145461 0.00333117 0.989358 
63.6217 910.896 704.441 78 78 78 -0.220032 0.0105898 0.975435 
63.9138 910.924 704.471 58 58 58 -0.345034 0.0216442 0.93834 
64.1641 910.915 704.643 52 52 52 -0.445431 0.0280903 0.894875 
64.3591 910.858 704.987 44 44 44 -0.514431 0.0427543 0.856465 
64.5304 910.784 705.393 58 58 58 -0.53293 0.0991163 0.840334 
64.7653 910.768 705.589 94 94 94 -0.438907 0.170605 0.882188 
65.0672 910.809 705.584 86 86 86 -0.352063 0.208364 0.912489 
65.4178 910.887 705.444 83 83 83 -0.252234 0.238299 0.937865 
65.7494 910.948 705.371 102 102 102 -0.202226 0.288696 0.93582 
66.0148 910.956 705.487 70 70 70 -0.143857 0.321966 0.935758 
66.2744 910.96 705.619 54 54 54 -0.136231 0.394649 0.908676 
66.5829 911.001 705.623 55 55 55 -0.164087 0.437081 0.884328 
66.9623 911.092 705.454 70 70 70 -0.232018 0.471618 0.850732 
67.4148 911.232 705.118 88 88 88 -0.261851 0.494264 0.828937 
67.6458 911.213 705.338 52 52 52 -0.280026 0.502169 0.818176 
67.6756 911.058 706.029 104 104 104 -0.296776 0.497767 0.814956 
68.0816 911.161 705.827 95 95 95 -0.240652 0.488968 0.838449 
68.3288 911.157 705.998 49 49 49 -0.172301 0.466834 0.867398 
68.6468 911.2 706.012 65 65 65 0.125464 0.365364 0.922371 
68.9852 911.254 705.986 95 95 95 0.221212 0.26295 0.939107 
69.4484 911.386 705.705 112 112 112 0.26333 0.171502 0.949339 
69.8834 911.496 705.499 88 88 88 0.25368 0.10173 0.961924 
70.1945 911.529 705.56 86 86 86 0.183434 0.0292092 0.982598 
70.5141 911.565 705.608 80 80 80 0.054089 -0.0328776 0.997995 
70.8229 911.595 705.681 86 86 86 -0.218671 -0.161057 0.962415 
71.1333 911.625 705.754 76 76 76 -0.354059 -0.155338 0.922232 
71.4463 911.656 705.827 48 48 48 -0.5405 -0.192279 0.819078 
71.8219 911.578 706.433 60 60 60 -0.73418 -0.292712 0.612617 
72.0029 911.538 706.74 60 60 60 -0.696932 -0.368964 0.61494 
72.2911 911.556 706.857 47 47 47 -0.456343 -0.529358 0.715214 
72.5089 911.538 707.095 54 54 54 -0.137075 -0.540932 0.829821 
72.8002 911.558 707.21 89 89 89 0.114795 -0.388643 0.914209 
54.6247 909.853 703.682 105 105 105 -0.0818113 0.0381786 0.995916 
54.9036 909.886 703.642 84 84 84 -0.102792 0.0598677 0.9929 
55.1802 909.901 703.682 100 100 100 -0.130118 0.0808842 0.988194 
55.4549 909.908 703.755 109 109 109 -0.143853 0.0891653 0.985574 
55.7295 909.918 703.814 111 111 111 -0.14715 0.0945109 0.984589 
56.0053 909.935 703.846 119 119 119 -0.118918 0.10008 0.987847 
56.2818 909.955 703.869 100 100 100 -0.0938343 0.100785 0.990473 
56.5588 909.977 703.886 117 117 117 -0.0813791 0.10201 0.991449 
56.8351 909.996 703.913 118 118 118 -0.0963282 0.103292 0.989976 
57.1101 910.012 703.955 110 110 110 -0.136107 0.114426 0.984064 
57.3857 910.03 703.991 80 80 80 -0.180245 0.134869 0.974332 
57.6629 910.052 704.012 107 107 107 -0.213904 0.146492 0.965808 
57.9435 910.08 704.008 107 107 107 -0.219392 0.146694 0.964546 
58.206 910.073 704.15 109 109 109 -0.193536 0.127759 0.972739 
58.4786 910.087 704.208 97 97 97 -0.129147 0.0959719 0.98697 
58.7598 910.116 704.205 108 108 108 -0.076227 0.0585512 0.99537 
59.0374 910.138 704.231 121 121 121 -0.0596989 0.0136155 0.998124 
59.3205 910.169 704.226 99 99 99 -0.0749726 -0.0402027 0.996375 
59.5961 910.187 704.271 85 85 85 -0.0870149 -0.0757142 0.993326 
59.8748 910.21 704.299 112 112 112 -0.0683532 -0.0862819 0.993923 
60.1542 910.233 704.328 158 158 158 -0.0180173 -0.0710095 0.997313 
60.4391 910.264 704.33 154 154 154 0.0326119 -0.0473399 0.998346 
60.7329 910.304 704.294 159 159 159 -0.027577 -0.106999 0.993877 
61.0238 910.34 704.279 200 200 200 -0.097305 -0.150162 0.983861 
61.304 910.361 704.32 202 202 202 -0.0965258 -0.139426 0.985517 
61.5854 910.384 704.359 180 180 180 -0.0554482 -0.109765 0.99241 
61.8473 910.385 704.482 179 179 179 -0.0160234 -0.0801171 0.996657 
62.1678 910.45 704.362 173 173 173 0.0611928 -0.0397216 0.997335 
62.4701 910.493 704.328 130 130 130 0.129895 -0.0144328 0.991423 
62.7593 910.521 704.352 99 99 99 0.0397163 0.0633314 0.997202 
63.0571 910.557 704.348 88 88 88 -0.059507 0.0954358 0.993655 
63.3563 910.594 704.345 90 90 90 -0.141241 0.109854 0.983861 
63.6571 910.63 704.342 122 122 122 -0.211493 0.0988635 0.972367 
63.9596 910.668 704.339 84 84 84 -0.328795 0.0694268 0.941846 
64.1932 910.644 704.568 60 60 60 -0.439014 0.0280222 0.898043 
64.3879 910.589 704.914 44 44 44 -0.508944 -0.0067143 0.860773 
64.6359 910.582 705.082 36 36 36 -0.541774 0.00678915 0.840497 
64.8382 910.539 705.383 47 47 47 -0.459197 0.0476911 0.887054 
65.1186 910.561 705.445 67 67 67 -0.389579 0.0741413 0.918004 
65.4045 910.586 705.494 58 58 58 -0.29835 0.110058 0.94809 
65.7233 910.637 705.454 66 66 66 -0.265734 0.199644 0.943148 
66.0109 910.663 705.506 76 76 76 -0.20622 0.272653 0.939752 
66.2699 910.667 705.638 95 95 95 -0.185228 0.380507 0.906038 
66.5354 910.677 705.752 92 92 92 -0.203348 0.440836 0.87425 
66.8485 910.72 705.746 58 58 58 -0.259475 0.471354 0.84291 
67.1843 910.778 705.69 61 61 61 -0.275162 0.492805 0.825487 
67.6202 910.902 705.402 58 58 58 -0.273111 0.504085 0.819334 
67.6363 910.743 706.122 92 92 92 -0.286224 0.498938 0.818008 
67.956 910.789 706.116 91 91 91 -0.223479 0.488005 0.843747 
68.2781 910.835 706.11 86 86 86 -0.14272 0.456993 0.877945 
68.5596 910.854 706.201 80 80 80 0.170431 0.353538 0.919763 
68.9612 910.948 706.034 96 96 96 0.260428 0.271813 0.926442 
69.4167 911.072 705.767 112 112 112 0.299527 0.190861 0.934802 
69.8179 911.16 705.629 98 98 98 0.291462 0.135657 0.946915 
70.1602 911.211 705.623 86 86 86 0.222262 0.0916672 0.970668 
70.492 911.255 705.643 81 81 81 0.0794642 0.0402764 0.996024 
70.8203 911.296 705.677 86 86 86 -0.219821 -0.094209 0.970981 
71.1302 911.326 705.75 87 87 87 -0.321014 -0.125967 0.93866 
71.4427 911.356 705.823 75 75 75 -0.465471 -0.19184 0.864022 
71.6719 911.341 706.052 48 48 48 -0.618174 -0.260866 0.741492 
71.8524 911.3 706.366 40 40 40 -0.650248 -0.352149 0.673178 
72.1395 911.318 706.486 50 50 50 -0.584647 -0.474083 0.658356 
72.8658 911.301 707.085 85 85 85 0.0663845 -0.546613 0.83475 
73.1958 911.341 707.139 84 84 84 0.174304 -0.510995 0.841726 
55.1986 909.614 703.689 103 103 103 -0.166254 0.138753 0.976272 
55.4721 909.617 703.778 112 112 112 -0.174474 0.159192 0.971708 
55.7456 909.626 703.847 114 114 114 -0.164365 0.166913 0.972175 
56.0208 909.643 703.879 93 93 93 -0.114571 0.166312 0.979395 
56.2967 909.663 703.901 87 87 87 -0.0699086 0.15996 0.984645 
56.5733 909.685 703.915 99 99 99 -0.0524134 0.154911 0.986537 
56.8506 909.708 703.926 90 90 90 -0.0786626 0.137366 0.987392 
57.1249 909.724 703.97 85 85 85 -0.132395 0.129966 0.982639 
57.3991 909.74 704.014 71 71 71 -0.184786 0.129476 0.974213 
57.6661 909.742 704.121 78 78 78 -0.216202 0.124092 0.968431 
57.9386 909.756 704.175 112 112 112 -0.203876 0.122832 0.97126 
58.2058 909.761 704.267 101 101 101 -0.148759 0.10522 0.98326 
58.4792 909.779 704.31 101 101 101 -0.0628356 0.0716546 0.995448 
58.7595 909.808 704.305 99 99 99 -0.00708896 0.0293686 0.999544 
59.0452 909.845 704.271 110 110 110 -0.00904284 -0.0211 0.999736 
59.3377 909.89 704.202 108 108 108 -0.0488005 -0.0661518 0.996616 
59.611 909.905 704.26 99 99 99 -0.0836939 -0.0974518 0.991715 
59.8817 909.917 704.332 130 130 130 -0.0818775 -0.109554 0.990603 
60.1577 909.937 704.375 172 172 172 -0.0363446 -0.0980203 0.994521 
60.4415 909.966 704.379 166 166 166 0.011633 -0.0729707 0.997266 
60.7349 910.006 704.341 169 169 169 -0.0248248 -0.0831092 0.996231 
61.0359 910.054 704.275 194 194 194 -0.102777 -0.0621183 0.992763 
61.326 910.087 704.27 194 194 194 -0.13526 0.00109968 0.990809 
61.6033 910.105 704.326 151 151 151 -0.144034 0.0690894 0.987158 
61.8871 910.13 704.356 120 120 120 -0.127535 0.134823 0.982628 
62.1865 910.171 704.326 143 143 143 -0.0662774 0.189192 0.979701 
62.4733 910.198 704.353 91 91 91 -0.00117485 0.226747 0.973953 
62.7432 910.208 704.448 93 93 93 -0.0182728 0.266782 0.963584 
63.0402 910.244 704.443 93 93 93 -0.0594328 0.274402 0.959777 
63.3387 910.28 704.438 81 81 81 -0.113155 0.261427 0.958567 
63.6658 910.341 704.339 80 80 80 -0.173411 0.221066 0.959718 
63.9679 910.377 704.336 80 80 80 -0.279047 0.155026 0.947681 
64.1157 910.283 704.846 55 55 55 -0.392491 0.0629593 0.917598 
64.4131 910.317 704.854 42 42 42 -0.473297 -0.0366161 0.880142 
64.6766 910.323 704.974 35 35 35 -0.507404 -0.0895419 0.857044 
64.9399 910.33 705.093 37 37 37 -0.446267 -0.108399 0.88831 
65.1481 910.294 705.374 48 48 48 -0.40855 -0.101099 0.90712 
65.3685 910.27 705.61 51 51 51 -0.350983 -0.0701966 0.933747 
65.7058 910.334 705.515 78 78 78 -0.34359 0.0242685 0.938806 
65.9918 910.359 705.569 84 84 84 -0.287638 0.132447 0.948537 
66.2548 910.367 705.687 86 86 86 -0.252976 0.28442 0.924721 
66.5145 910.374 705.814 86 86 86 -0.247818 0.378405 0.891849 
66.8058 910.402 705.861 63 63 63 -0.299039 0.406387 0.86338 
66.9219 910.313 706.344 40 40 40 -0.304685 0.431509 0.849098 
67.2325 910.355 706.341 68 68 68 -0.285752 0.44639 0.847987 
67.545 910.397 706.34 80 80 80 -0.289341 0.447163 0.846361 
67.861 910.441 706.337 95 95 95 -0.209572 0.441439 0.872474 
68.2286 910.516 706.222 103 103 103 -0.103551 0.401776 0.909864 
68.4959 910.527 706.341 114 114 114 0.216665 0.304464 0.927555 
68.9023 910.622 706.16 105 105 105 0.308119 0.236464 0.921492 
68.9927 910.528 706.661 105 105 105 0.344874 0.175956 0.92201 
69.9801 910.959 705.289 95 95 95 0.330276 0.141155 0.93327 
70.1926 910.934 705.552 96 96 96 0.254538 0.121395 0.959413 
70.5212 910.975 705.58 81 81 81 0.10265 0.0888095 0.990745 
70.8302 911.004 705.651 73 73 73 -0.203303 -0.0199778 0.978912 
71.1352 911.031 705.733 70 70 70 -0.279485 -0.0948949 0.955449 
71.4426 911.059 705.815 59 59 59 -0.376476 -0.178934 0.908982 
71.7042 911.062 705.983 52 52 52 -0.509415 -0.28057 0.813497 
71.9912 911.079 706.106 37 37 37 -0.530022 -0.402029 0.746625 
72.1713 911.04 706.419 57 57 57 -0.454756 -0.544707 0.704621 
72.3164 910.985 706.788 95 95 95 -0.269372 -0.658289 0.702918 
73.044 911.098 706.775 77 77 77 0.020933 -0.648923 0.760566 
73.6437 911.269 706.393 54 54 54 0.104345 -0.627538 0.771563 
55.487 909.318 703.848 120 120 120 -0.219171 0.227338 0.948832 
55.7596 909.327 703.917 110 110 110 -0.193402 0.242091 0.950782 
56.0346 909.346 703.939 108 108 108 -0.111987 0.240707 0.964116 
56.3103 909.368 703.953 110 110 110 -0.0374636 0.228407 0.972845 
56.5866 909.391 703.961 102 102 102 0.00820736 0.214564 0.976676 
56.8655 909.42 703.946 110 110 110 -0.0335745 0.167872 0.985237 
57.1393 909.436 703.99 73 73 73 -0.103702 0.13231 0.985769 
57.4155 909.457 704.011 53 53 53 -0.168633 0.0909892 0.98147 
57.6797 909.455 704.139 58 58 58 -0.210266 0.0571243 0.975974 
57.9324 909.433 704.352 111 111 111 -0.18276 0.0436266 0.982189 
58.1965 909.436 704.454 121 121 121 -0.108952 0.0231111 0.993778 
58.4746 909.464 704.449 108 108 108 -0.00296142 -0.00690997 0.999972 
58.7638 909.51 704.373 99 99 99 0.0480172 -0.0480172 0.997692 
59.0617 909.565 704.254 93 93 93 0.0338754 -0.0885131 0.995499 
59.3577 909.615 704.163 95 95 95 -0.0209009 -0.113305 0.99334 
59.6271 909.625 704.244 124 124 124 -0.076176 -0.134773 0.987944 
59.8911 909.629 704.352 149 149 149 -0.0840504 -0.143241 0.986112 
60.1621 909.643 704.419 169 169 169 -0.0446215 -0.136153 0.989682 
60.447 909.674 704.414 167 167 167 0.00543914 -0.116398 0.993188 
60.7428 909.717 704.361 187 187 187 -0.0247759 -0.0807911 0.996423 
61.0477 909.768 704.274 194 194 194 -0.120949 0.00326889 0.992653 
61.3434 909.808 704.241 179 179 179 -0.208136 0.0959671 0.973381 
61.6184 909.824 704.307 111 111 111 -0.258053 0.195247 0.946196 
61.9002 909.847 704.345 77 77 77 -0.258049 0.278008 0.925269 
62.1914 909.879 704.347 84 84 84 -0.191582 0.33917 0.92101 
62.4846 909.912 704.347 96 96 96 -0.108461 0.380298 0.918482 
62.7443 909.913 704.48 106 106 106 -0.0575775 0.400365 0.914545 
63.0118 909.922 704.581 93 93 93 -0.0437876 0.396742 0.916885 
63.3206 909.968 704.534 67 67 67 -0.073679 0.371074 0.925676 
63.6382 910.02 704.464 68 68 68 -0.116866 0.315672 0.941644 
63.9289 910.048 704.494 95 95 95 -0.198474 0.233578 0.951866 
64.1885 910.05 704.631 75 75 75 -0.29835 0.110058 0.94809 
64.4742 910.073 704.682 50 50 50 -0.384812 -0.048928 0.921697 
64.7249 910.069 704.845 40 40 40 -0.433738 -0.176708 0.883541 
64.9748 910.065 705.006 37 37 37 -0.38842 -0.262446 0.883319 
65.248 910.08 705.097 41 41 41 -0.382938 -0.292123 0.876369 
65.3736 909.987 705.611 48 48 48 -0.376247 -0.271317 0.885904 
65.6737 910.023 705.618 89 89 89 -0.404555 -0.200087 0.892357 
65.9883 910.068 705.59 73 73 73 -0.375083 -0.0793186 0.923591 
66.3231 910.127 705.517 88 88 88 -0.361469 0.0846564 0.928533 
66.4438 910.039 706.006 82 82 82 -0.346815 0.227824 0.909844 
66.8053 910.115 705.87 51 51 51 -0.371295 0.263933 0.890213 
66.9256 910.032 706.341 47 47 47 -0.353255 0.302146 0.885392 
67.2356 910.073 706.339 80 80 80 -0.306009 0.326907 0.894142 
67.536 910.107 706.365 122 122 122 -0.290926 0.341651 0.893665 
67.8602 910.156 706.342 101 101 101 -0.185743 0.344547 0.92021 
68.1785 910.199 706.338 95 95 95 -0.0661144 0.312423 0.94764 
68.4944 910.24 706.346 111 111 111 0.248274 0.251079 0.935585 
68.7944 910.271 706.393 118 118 118 0.34197 0.204609 0.917165 
68.994 910.244 706.657 108 108 108 0.369126 0.162642 0.915037 
70.2812 910.832 704.664 88 88 88 0.354209 0.145851 0.923722 
70.3257 910.712 705.279 95 95 95 0.272666 0.154466 0.949628 
70.5312 910.684 705.556 93 93 93 0.110525 0.149391 0.982581 
70.8524 910.72 705.603 84 84 84 -0.191967 0.0664037 0.979152 
71.1572 910.746 705.685 81 81 81 -0.241286 -0.0556813 0.968855 
71.4644 910.774 705.767 76 76 76 -0.288682 -0.155861 0.944653 
71.7948 910.813 705.809 74 74 74 -0.36435 -0.286382 0.886135 
72.0246 910.8 706.037 63 63 63 -0.358612 -0.434442 0.826231 
72.2041 910.763 706.352 54 54 54 -0.295091 -0.569446 0.767237 
72.4932 910.781 706.472 98 98 98 -0.166002 -0.653348 0.738634 
56.044 909.037 704.067 109 109 109 -0.131298 0.312678 0.940741 
56.3233 909.073 704.014 113 113 113 -0.031531 0.311526 0.949714 
56.5995 909.098 704.014 104 104 104 0.0443662 0.302957 0.951971 
56.8786 909.128 703.988 103 103 103 0.0107956 0.250698 0.968005 
57.1538 909.149 704.011 88 88 88 -0.0563524 0.193037 0.979572 
57.423 909.157 704.093 68 68 68 -0.115199 0.112824 0.986914 
57.6919 909.166 704.171 55 55 55 -0.163698 0.0406343 0.985673 
57.9528 909.161 704.312 98 98 98 -0.12121 -0.00545991 0.992612 
58.2215 909.173 704.379 140 140 140 -0.0436601 -0.0500493 0.997792 
58.4984 909.199 704.384 119 119 119 0.0498016 -0.0874295 0.994925 
58.7895 909.246 704.296 87 87 87 0.0825441 -0.119747 0.989367 
59.0925 909.307 704.146 102 102 102 0.0497988 -0.14708 0.98787 
59.3888 909.356 704.058 110 110 110 -0.0100973 -0.151459 0.988412 
59.6591 909.367 704.136 139 139 139 -0.0751482 -0.161032 0.984084 
59.9179 909.364 704.276 168 168 168 -0.0854272 -0.162432 0.983015 
60.1873 909.376 704.354 169 169 169 -0.0358462 -0.16073 0.986347 
60.4709 909.405 704.356 187 187 187 0.0239631 -0.158613 0.98705 
60.7681 909.448 704.297 179 179 179 -0.042627 -0.081975 0.995722 
61.0738 909.499 704.207 187 187 187 -0.208833 0.0346066 0.977339 
61.3486 909.516 704.271 138 138 138 -0.337182 0.156796 0.92829 
61.625 909.534 704.328 100 100 100 -0.391998 0.262834 0.881621 
61.8514 909.502 704.598 62 62 62 -0.374992 0.347214 0.859548 
62.1418 909.535 704.593 58 58 58 -0.271771 0.411452 0.86997 
62.4339 909.569 704.588 83 83 83 -0.133057 0.444953 0.885614 
62.7088 909.586 704.653 85 85 85 -0.053067 0.450389 0.891254 
62.9881 909.607 704.705 85 85 85 -0.030726 0.442187 0.896397 
63.2835 909.642 704.699 82 82 82 -0.0384692 0.409895 0.911321 
63.587 909.683 704.673 67 67 67 -0.0482878 0.356285 0.933129 
63.8749 909.709 704.705 82 82 82 -0.0839715 0.285503 0.954692 
64.1406 909.718 704.814 80 80 80 -0.141066 0.186818 0.972214 
64.4402 909.753 704.815 76 76 76 -0.22345 0.0549466 0.973166 
64.7218 909.774 704.877 57 57 57 -0.326317 -0.111458 0.938666 
64.9968 909.79 704.961 38 38 38 -0.35701 -0.231692 0.90491 
65.2605 909.798 705.08 60 60 60 -0.418677 -0.272521 0.866281 
65.467 909.766 705.361 54 54 54 -0.45215 -0.268225 0.850656 
65.7493 909.788 705.423 72 72 72 -0.481431 -0.243008 0.842123 
65.971 909.769 705.652 74 74 74 -0.453556 -0.177606 0.873352 
66.2416 909.784 705.746 85 85 85 -0.454005 -0.111733 0.883966 
66.4446 909.755 706.015 71 71 71 -0.450893 0.00925587 0.89253 
66.7334 909.783 706.062 44 44 44 -0.445968 0.0559165 0.8933 
66.9921 909.791 706.185 47 47 47 -0.410048 0.0952636 0.907075 
67.2834 909.819 706.231 53 53 53 -0.331393 0.132284 0.934173 
67.5505 909.833 706.337 101 101 101 -0.284661 0.167528 0.943876 
67.8512 909.866 706.368 113 113 113 -0.174944 0.211774 0.961533 
68.1589 909.903 706.386 92 92 92 -0.0991147 0.256154 0.961541 
68.4651 909.938 706.413 109 109 109 0.251863 0.257491 0.932879 
68.7885 909.982 706.407 114 114 114 0.347265 0.233932 0.90812 
69.236 910.095 706.146 96 96 96 0.379241 0.204877 0.902331 
69.7809 910.257 705.699 98 98 98 0.365875 0.209691 0.906733 
70.1289 910.309 705.677 103 103 103 0.292895 0.244317 0.924404 
70.492 910.367 705.632 70 70 70 0.15007 0.256315 0.954872 
70.8189 910.406 705.665 52 52 52 -0.159515 0.177381 0.971129 
71.1342 910.438 705.725 79 79 79 -0.166249 0.0554164 0.984525 
71.4747 910.482 705.743 109 109 109 -0.179338 -0.0558205 0.982203 
71.7919 910.514 705.809 126 126 126 -0.204289 -0.204289 0.957357 
72.0593 910.521 705.969 95 95 95 -0.197648 -0.37077 0.90745 
72.384 910.556 706.027 57 57 57 -0.177907 -0.509801 0.841696 
72.5823 910.53 706.31 80 80 80 -0.0941255 -0.583578 0.806583 
72.948 910.584 706.303 99 99 99 -0.0323007 -0.62214 0.782239 
56.3276 908.755 704.192 111 111 111 -0.0555683 0.429638 0.90129 
56.6073 908.793 704.129 105 105 105 0.0526687 0.425401 0.903471 
56.8936 908.843 704.01 102 102 102 0.0489973 0.388005 0.920354 
57.1708 908.868 704.008 104 104 104 0.0163741 0.33126 0.943398 
57.4398 908.877 704.089 95 95 95 -0.0107084 0.234394 0.972083 
57.7108 908.891 704.147 81 81 81 -0.0507942 0.114005 0.992181 
57.9778 908.898 704.235 108 108 108 -0.0189774 -0.00499404 0.999807 
58.2562 908.926 704.23 130 130 130 0.0430628 -0.0916464 0.99486 
58.5312 908.947 704.256 125 125 125 0.102169 -0.143037 0.98443 
58.82 908.989 704.189 82 82 82 0.098865 -0.172098 0.980106 
59.119 909.042 704.069 104 104 104 0.0412547 -0.185057 0.981862 
59.4165 909.09 703.975 125 125 125 -0.0241896 -0.171631 0.984864 
59.6862 909.101 704.059 152 152 152 -0.0855959 -0.165164 0.982545 
59.9508 909.105 704.168 149 149 149 -0.0898796 -0.154593 0.983881 
60.2201 909.117 704.249 158 158 158 -0.0352991 -0.140058 0.989514 
60.5057 909.147 704.244 150 150 150 -0.0203015 -0.0758636 0.996911 
60.8037 909.19 704.184 158 158 158 -0.143544 0.042489 0.988731 
61.0921 909.221 704.179 96 96 96 -0.339015 0.175838 0.924202 
61.3581 909.229 704.283 76 76 76 -0.444917 0.267562 0.854669 
61.5747 909.189 704.599 59 59 59 -0.461343 0.347196 0.816466 
61.7888 909.15 704.91 62 62 62 -0.407707 0.414102 0.813815 
62.0677 909.174 704.94 63 63 63 -0.266333 0.463389 0.845185 
62.3389 909.191 705.004 61 61 61 -0.133378 0.457502 0.879149 
62.6285 909.224 704.999 78 78 78 -0.0530031 0.447129 0.892898 
62.9389 909.274 704.923 89 89 89 -0.0197801 0.428569 0.903292 
63.2317 909.308 704.919 91 91 91 -0.00642335 0.389255 0.921108 
63.5428 909.355 704.858 74 74 74 0.0138439 0.333512 0.942644 
63.8441 909.393 704.839 74 74 74 0.0108881 0.264944 0.964202 
64.1361 909.423 704.857 72 72 72 -0.0126244 0.180184 0.983552 
64.4397 909.462 704.842 79 79 79 -0.0698902 0.0698902 0.995103 
64.7502 909.504 704.813 88 88 88 -0.187728 -0.0920233 0.977901 
65.047 909.535 704.832 47 47 47 -0.280563 -0.229808 0.931919 
65.3111 909.543 704.951 48 48 48 -0.411851 -0.278113 0.867774 
65.5752 909.552 705.07 55 55 55 -0.487228 -0.281751 0.826575 
65.7811 909.522 705.351 73 73 73 -0.530607 -0.284985 0.798273 
65.9855 909.493 705.628 60 60 60 -0.506518 -0.25868 0.822511 
66.2485 909.503 705.742 64 64 64 -0.505609 -0.241278 0.828338 
66.5116 909.513 705.855 60 60 60 -0.516512 -0.181153 0.836899 
66.8132 909.548 705.872 39 39 39 -0.493103 -0.128698 0.860399 
67.0633 909.55 706.02 42 42 42 -0.44246 -0.0935168 0.891899 
67.2967 909.544 706.208 64 64 64 -0.355742 -0.0648006 0.932335 
67.554 909.552 706.337 84 84 84 -0.290376 -0.00612608 0.956893 
67.8367 909.574 706.408 119 119 119 -0.180154 0.0584606 0.9819 
68.1437 909.611 706.426 89 89 89 -0.132161 0.124886 0.983329 
68.4526 909.647 706.445 107 107 107 0.208277 0.286556 0.935151 
68.8066 909.708 706.372 117 117 117 0.300416 0.312255 0.901248 
69.2239 909.8 706.174 85 85 85 0.330298 0.327282 0.885319 
69.7051 909.924 705.858 97 97 97 0.316184 0.349467 0.881987 
70.2297 910.068 705.473 109 109 109 0.253141 0.396937 0.882248 
70.534 910.094 705.548 76 76 76 0.147227 0.424527 0.893365 
70.7999 910.102 705.701 41 41 41 -0.0692759 0.41158 0.908737 
71.1006 910.126 705.787 67 67 67 -0.0360475 0.274707 0.960852 
71.444 910.172 705.797 93 93 93 -0.0281731 0.134104 0.990567 
71.8115 910.228 705.769 122 122 122 -0.0431338 -0.0368216 0.998391 
72.1497 910.268 705.801 132 132 132 -0.0599105 -0.216411 0.974462 
72.5098 910.319 705.8 95 95 95 -0.0847851 -0.36471 0.927253 
72.7478 910.312 706.017 86 86 86 -0.049853 -0.424424 0.90409 
73.1163 910.366 706.01 91 91 91 -0.0173866 -0.472113 0.881367 
73.4894 910.42 706.004 96 96 96 -0.00673904 -0.521602 0.853162 
56.6134 908.486 704.266 99 99 99 0.0510737 0.498313 0.865491 
56.9109 908.563 704.009 104 104 104 0.0679919 0.473168 0.878344 
57.188 908.589 704.005 120 120 120 0.0782776 0.42984 0.899505 
57.4657 908.615 704.002 113 113 113 0.104304 0.350841 0.930608 
57.7293 908.615 704.127 110 110 110 0.100364 0.235029 0.966793 
58.0032 908.635 704.158 116 116 116 0.132729 0.081047 0.987833 
58.2914 908.677 704.08 131 131 131 0.159142 -0.0453032 0.986216 
58.5644 908.694 704.127 125 125 125 0.145731 -0.128587 0.980932 
58.8541 908.735 704.06 113 113 113 0.0928423 -0.160364 0.982682 
59.1373 908.765 704.047 89 89 89 0.00563938 -0.161286 0.986892 
59.432 908.809 703.97 138 138 138 -0.0588607 -0.135033 0.989091 
59.7043 908.823 704.036 155 155 155 -0.109736 -0.112095 0.98762 
59.9729 908.833 704.123 143 143 143 -0.0999494 -0.0838656 0.991452 
60.2447 908.847 704.19 121 121 121 -0.0396419 -0.0589271 0.997475 
60.5352 908.883 704.161 85 85 85 -0.0721975 0.03556 0.996756 
60.8367 908.928 704.086 81 81 81 -0.254269 0.155757 0.954509 
61.129 908.962 704.066 57 57 57 -0.447771 0.23067 0.863882 
61.3954 908.97 704.17 45 45 45 -0.527479 0.281847 0.801454 
61.5876 908.909 704.595 51 51 51 -0.519304 0.342451 0.782975 
61.7766 908.849 705.01 103 103 103 -0.441698 0.40315 0.801482 
62.0376 908.859 705.109 86 86 86 -0.256986 0.442503 0.859156 
62.2985 908.868 705.207 70 70 70 -0.113023 0.408837 0.905582 
62.586 908.901 705.201 95 95 95 -0.0407102 0.382151 0.923203 
62.9047 908.957 705.087 100 100 100 -0.00380001 0.358467 0.933535 
63.1945 908.989 705.088 81 81 81 0.0317588 0.321399 0.946411 
63.5057 909.037 705.021 100 100 100 0.0724694 0.270807 0.959902 
63.8222 909.087 704.944 105 105 105 0.0909287 0.212997 0.972812 
64.1323 909.131 704.899 97 97 97 0.0895223 0.149204 0.984746 
64.4614 909.187 704.801 71 71 71 0.0487021 0.0638539 0.99677 
64.7846 909.237 704.733 96 96 96 -0.0605063 -0.0715074 0.995603 
65.0895 909.273 704.728 64 64 64 -0.202539 -0.194597 0.959745 
65.3629 909.288 704.822 67 67 67 -0.380978 -0.264443 0.88596 
65.6129 909.287 704.983 45 45 45 -0.488484 -0.282478 0.825585 
65.8874 909.302 705.074 49 49 49 -0.544462 -0.314543 0.777575 
66.0972 909.277 705.342 37 37 37 -0.537791 -0.311184 0.783547 
66.3011 909.25 705.618 48 48 48 -0.519153 -0.312762 0.795399 
66.5647 909.261 705.732 56 56 56 -0.513701 -0.259178 0.817886 
66.8238 909.269 705.858 36 36 36 -0.487533 -0.212824 0.846769 
67.0698 909.27 706.016 40 40 40 -0.449552 -0.184243 0.874047 
67.3029 909.264 706.204 47 47 47 -0.388606 -0.163698 0.906746 
67.5579 909.272 706.337 59 59 59 -0.333236 -0.0889515 0.938638 
67.8366 909.292 706.416 118 118 118 -0.251317 -0.0230677 0.96763 
68.1306 909.321 706.463 85 85 85 -0.162295 0.067524 0.984429 
68.4279 909.351 706.506 100 100 100 0.156913 0.266887 0.950868 
68.767 909.402 706.463 111 111 111 0.254323 0.32408 0.911203 
69.2431 909.523 706.138 91 91 91 0.282427 0.360132 0.889123 
69.651 909.607 705.973 89 89 89 0.26048 0.402012 0.877802 
70.1344 909.725 705.669 100 100 100 0.200491 0.447021 0.871766 
70.4767 909.772 705.663 93 93 93 0.109585 0.471075 0.87526 
70.7617 909.789 705.776 65 65 65 -0.0146452 0.464654 0.885371 
71.017 909.792 705.947 72 72 72 0.0321278 0.348265 0.936845 
71.3774 909.845 705.921 88 88 88 0.0628077 0.227832 0.971673 
71.7932 909.923 705.801 122 122 122 0.0591476 0.0881633 0.994348 
72.176 909.984 705.751 114 114 114 0.0286856 -0.0626833 0.997621 
72.5221 910.027 705.775 128 128 128 -0.0197867 -0.192047 0.981186 
72.874 910.072 705.794 126 126 126 -0.0358005 -0.262949 0.964145 
73.2436 910.124 705.789 112 112 112 -0.0289414 -0.310805 0.950033 
57.1731 908.246 704.327 115 115 115 0.140396 0.467504 0.872771 
57.4522 908.279 704.285 117 117 117 0.207052 0.409698 0.888413 
57.7338 908.315 704.231 117 117 117 0.237076 0.317538 0.918131 
58.0217 908.359 704.139 111 111 111 0.26554 0.183835 0.946411 
58.3199 908.416 703.984 108 108 108 0.247644 0.0609776 0.96693 
58.5904 908.429 704.053 127 127 127 0.165256 -0.0312022 0.985757 
58.8823 908.471 703.973 126 126 126 0.0485057 -0.0592848 0.997062 
59.1646 908.499 703.968 122 122 122 -0.0550931 -0.0529326 0.997077 
59.4345 908.511 704.045 156 156 156 -0.107448 -0.0343391 0.993617 
59.7075 908.527 704.103 155 155 155 -0.131223 -0.00551356 0.991338 
59.9827 908.546 704.148 122 122 122 -0.104811 0.0297883 0.994046 
60.2662 908.574 704.15 60 60 60 -0.0581862 0.0713604 0.995752 
60.5592 908.611 704.108 68 68 68 -0.133462 0.168387 0.976644 
60.8586 908.653 704.045 50 50 50 -0.348184 0.234551 0.907609 
61.1664 908.702 703.951 44 44 44 -0.523845 0.239516 0.817446 
61.4575 908.733 703.946 52 52 52 -0.584795 0.246147 0.772933 
61.5047 908.542 705.012 75 75 75 -0.570743 0.276676 0.773112 
61.7405 908.53 705.213 100 100 100 -0.472296 0.323815 0.819805 
62.0249 908.561 705.208 100 100 100 -0.253053 0.340817 0.905432 
62.3108 908.593 705.203 90 90 90 -0.0641058 0.25768 0.964101 
62.598 908.624 705.198 82 82 82 0.0318967 0.19965 0.979348 
62.8869 908.657 705.192 93 93 93 0.0633901 0.17821 0.981948 
63.1964 908.704 705.119 84 84 84 0.099956 0.148128 0.983904 
63.4892 908.737 705.113 83 83 83 0.138837 0.112277 0.98393 
63.809 908.789 705.022 101 101 101 0.155311 0.0723202 0.985215 
64.1377 908.845 704.913 108 108 108 0.147707 0.019168 0.988845 
64.4701 908.903 704.803 95 95 95 0.11379 -0.0254095 0.99318 
64.7952 908.953 704.727 102 102 102 0.0250159 -0.0946254 0.995199 
65.0998 908.989 704.723 81 81 81 -0.117754 -0.172293 0.977982 
65.3654 908.998 704.839 84 84 84 -0.318378 -0.237703 0.917678 
65.6125 908.997 705.007 66 66 66 -0.469482 -0.277351 0.83825 
65.8349 908.981 705.242 43 43 43 -0.529317 -0.321428 0.78518 
66.0809 908.98 705.406 39 39 39 -0.530986 -0.346997 0.773077 
66.3143 908.973 705.601 37 37 37 -0.514857 -0.356688 0.779549 
66.5725 908.981 705.728 39 39 39 -0.490832 -0.350137 0.797802 
66.8365 908.992 705.841 38 38 38 -0.465908 -0.333243 0.819682 
67.077 908.991 706.012 43 43 43 -0.446863 -0.309846 0.839231 
67.3097 908.986 706.2 44 44 44 -0.428408 -0.2729 0.86139 
67.5621 908.992 706.339 56 56 56 -0.380008 -0.208204 0.901246 
67.8358 909.01 706.428 107 107 107 -0.31592 -0.13152 0.939626 
68.1193 909.033 706.497 93 93 93 -0.192477 -0.0221641 0.981051 
68.3991 909.054 706.578 103 103 103 0.051212 0.121771 0.991236 
68.5986 909.034 706.833 97 97 97 0.190041 0.213962 0.958178 
68.8327 909.032 707.012 86 86 86 0.23681 0.285023 0.928807 
69.7422 909.363 705.79 86 86 86 0.220917 0.34798 0.911101 
69.9448 909.342 706.058 87 87 87 0.170799 0.394703 0.902794 
70.4206 909.452 705.778 105 105 105 0.113179 0.412197 0.904038 
70.6242 909.432 706.046 113 113 113 0.0686306 0.394289 0.91642 
70.935 909.462 706.105 82 82 82 0.103216 0.333776 0.936985 
71.3521 909.541 705.969 91 91 91 0.140666 0.248467 0.958372 
71.7923 909.628 705.802 106 106 106 0.139254 0.144183 0.979704 
72.1749 909.687 705.752 96 96 96 0.0906873 0.0316859 0.995375 
72.548 909.741 705.727 113 113 113 0.0157407 -0.0619132 0.997957 
72.9016 909.786 705.744 115 115 115 -0.037221 -0.125198 0.991433 
57.4405 907.953 704.55 105 105 105 0.271474 0.443254 0.8543 
57.7327 908.009 704.385 108 108 108 0.317024 0.381348 0.868371 
58.0328 908.073 704.182 115 115 115 0.350416 0.281824 0.893188 
58.3393 908.14 703.96 113 113 113 0.328768 0.177675 0.927547 
58.6175 908.164 703.973 120 120 120 0.20923 0.0829491 0.974342 
58.9019 908.196 703.946 131 131 131 0.0318367 0.0215668 0.99926 
59.181 908.219 703.962 134 134 134 -0.0847178 0.0182304 0.996238 
59.4463 908.227 704.066 156 156 156 -0.131506 0.00994581 0.991266 
59.707 908.23 704.193 146 146 146 -0.143589 0.0260043 0.989296 
59.9858 908.253 704.212 153 153 153 -0.107727 0.0623683 0.992222 
60.2708 908.283 704.202 92 92 92 -0.0646425 0.105469 0.992319 
60.5646 908.321 704.153 44 44 44 -0.16056 0.183681 0.969784 
60.8554 908.354 704.128 55 55 55 -0.407249 0.2073 0.88948 
61.1341 908.376 704.167 42 42 42 -0.577855 0.17049 0.798134 
61.1895 908.196 705.219 55 55 55 -0.633196 0.148899 0.759534 
61.4709 908.226 705.214 90 90 90 -0.620406 0.145713 0.770626 
61.7538 908.256 705.209 110 110 110 -0.518657 0.155154 0.840786 
62.0491 908.296 705.158 94 94 94 -0.243797 0.131676 0.960846 
62.3366 908.328 705.147 81 81 81 -0.00696442 0.0129339 0.999892 
62.6105 908.349 705.194 83 83 83 0.0872467 -0.0474887 0.995054 
62.8992 908.381 705.188 93 93 93 0.12708 -0.0560982 0.990305 
63.2085 908.427 705.115 90 90 90 0.16391 -0.0601397 0.98464 
63.501 908.459 705.109 86 86 86 0.193464 -0.0588805 0.979339 
63.8154 908.507 705.035 85 85 85 0.197138 -0.0616812 0.978433 
64.1422 908.56 704.931 104 104 104 0.180569 -0.0787716 0.980403 
64.4788 908.619 704.806 109 109 109 0.145587 -0.0816709 0.985969 
64.8066 908.671 704.722 110 110 110 0.0667816 -0.100738 0.992669 
65.1165 908.709 704.7 139 139 139 -0.0692494 -0.144367 0.987098 
65.4173 908.741 704.713 114 114 114 -0.265734 -0.199644 0.943148 
65.671 908.744 704.864 82 82 82 -0.428111 -0.255656 0.866811 
65.9308 908.751 704.998 58 58 58 -0.487897 -0.31737 0.813162 
66.1151 908.714 705.334 46 46 46 -0.497166 -0.358796 0.789995 
66.3233 908.693 705.597 40 40 40 -0.487638 -0.393675 0.779249 
66.6196 908.723 705.625 37 37 37 -0.457306 -0.428012 0.779536 
66.8656 908.725 705.785 37 37 37 -0.460512 -0.424713 0.779454 
67.0849 908.713 706.008 39 39 39 -0.474598 -0.403327 0.782358 
67.3306 908.715 706.164 50 50 50 -0.486777 -0.361468 0.795229 
67.5694 908.715 706.335 67 67 67 -0.447293 -0.307027 0.840038 
67.8772 908.751 706.345 86 86 86 -0.384487 -0.247912 0.889218 
68.1548 908.77 706.428 79 79 79 -0.266318 -0.153903 0.951519 
68.4054 908.776 706.574 83 83 83 -0.0193197 0.023387 0.99954 
68.6332 908.772 706.768 91 91 91 0.133248 0.163135 0.977564 
68.9254 908.799 706.824 86 86 86 0.192841 0.26396 0.945059 
69.2788 908.854 706.756 74 74 74 0.181154 0.332817 0.925428 
69.6308 908.908 706.701 85 85 85 0.150341 0.37515 0.914691 
69.9724 908.955 706.674 110 110 110 0.13255 0.383697 0.913897 
70.4314 909.055 706.426 117 117 117 0.128504 0.366166 0.921634 
70.8215 909.122 706.325 104 104 104 0.179012 0.309454 0.933913 
71.3211 909.235 706.03 97 97 97 0.213425 0.227019 0.950217 
71.7944 909.334 705.8 122 122 122 0.206581 0.137293 0.968749 
72.168 909.388 705.766 108 108 108 0.140826 0.0616842 0.988111 
72.5323 909.438 705.755 109 109 109 0.037537 -0.00101451 0.999295 
72.881 909.48 705.779 88 88 88 0.134583 -0.122459 0.983306 
58.0419 907.784 704.243 109 109 109 0.412118 0.33436 0.847563 
58.3541 907.859 703.973 123 123 123 0.397375 0.259419 0.880224 
58.6375 907.89 703.945 126 126 126 0.276155 0.172767 0.945457 
58.9191 907.917 703.938 136 136 136 0.0663915 0.0911476 0.993622 
59.1977 907.94 703.956 163 163 163 -0.066016 0.0465358 0.996733 
59.4527 907.937 704.121 168 168 168 -0.131221 -0.00771887 0.991323 
59.7041 907.931 704.297 156 156 156 -0.146741 -0.0123217 0.989098 
59.9889 907.962 704.277 150 150 150 -0.110889 0.0208604 0.993614 
60.2787 907.997 704.238 92 92 92 -0.0719497 0.067522 0.99512 
60.5702 908.032 704.197 51 51 51 -0.185571 0.135076 0.973303 
60.8445 908.05 704.25 46 46 46 -0.448726 0.126783 0.884631 
61.1257 908.075 704.271 41 41 41 -0.603537 0.0763423 0.793672 
61.2492 907.963 705.009 75 75 75 -0.647141 0.0469355 0.760924 
61.4847 907.953 705.21 82 82 82 -0.622989 0.0236931 0.781872 
61.7837 907.996 705.136 102 102 102 -0.500853 -0.0175501 0.865355 
62.0738 908.031 705.108 81 81 81 -0.188589 -0.0949109 0.977459 
62.3629 908.063 705.092 82 82 82 0.0363781 -0.184237 0.982208 
62.6451 908.09 705.107 67 67 67 0.112813 -0.216753 0.969686 
62.9493 908.132 705.047 81 81 81 0.143514 -0.215917 0.965807 
63.2017 908.137 705.179 90 90 90 0.167646 -0.198836 0.965588 
63.4934 908.169 705.174 93 93 93 0.188179 -0.172605 0.966849 
63.8275 908.228 705.031 93 93 93 0.193003 -0.146989 0.970126 
64.1577 908.283 704.915 97 97 97 0.178665 -0.12619 0.975784 
64.4945 908.341 704.79 108 108 108 0.153233 -0.0977313 0.983345 
64.8186 908.389 704.716 105 105 105 0.0881017 -0.09039 0.992002 
65.1335 908.43 704.679 145 145 145 -0.0275231 -0.104588 0.994135 
65.4339 908.461 704.692 131 131 131 -0.203144 -0.156563 0.966551 
65.7363 908.492 704.704 83 83 83 -0.364236 -0.229659 0.902546 
65.9659 908.482 704.924 53 53 53 -0.432644 -0.305487 0.848231 
66.15 908.448 705.262 52 52 52 -0.449249 -0.375707 0.810567 
66.4088 908.456 705.392 45 45 45 -0.447125 -0.434118 0.782062 
66.7066 908.485 705.42 41 41 41 -0.426542 -0.485375 0.763199 
66.927 908.474 705.649 36 36 36 -0.461262 -0.49102 0.739011 
67.1865 908.483 705.775 41 41 41 -0.491558 -0.475007 0.729889 
67.3925 908.466 706.031 59 59 59 -0.526444 -0.434027 0.73108 
67.6521 908.476 706.155 66 66 66 -0.498112 -0.391026 0.77394 
67.9459 908.503 706.201 68 68 68 -0.445903 -0.341911 0.827205 
68.1959 908.509 706.348 68 68 68 -0.340528 -0.269769 0.900703 
68.4638 908.524 706.457 71 71 71 -0.0980406 -0.093427 0.990787 
68.7323 908.539 706.564 88 88 88 0.0475326 0.0369698 0.998185 
69.0554 908.579 706.559 65 65 65 0.129689 0.154392 0.979461 
70.0679 908.715 706.491 101 101 101 0.2323 0.210565 0.949578 
70.388 908.75 706.516 114 114 114 0.238314 0.205631 0.949169 
70.8097 908.829 706.353 109 109 109 0.275966 0.152118 0.949054 
71.291 908.931 706.091 93 93 93 0.278254 0.103202 0.954947 
71.7298 909.013 705.922 102 102 102 0.242118 0.0328502 0.96969 
72.1605 909.09 705.782 108 108 108 0.173011 0.00113079 0.984919 
72.5237 909.138 705.772 94 94 94 0.23906 -0.106107 0.96519 
72.8439 909.168 705.845 96 96 96 0.367451 -0.26629 0.891106 
58.3539 907.558 704.1 123 123 123 0.473257 0.25271 0.843899 
58.652 907.608 703.959 128 128 128 0.359475 0.196208 0.912294 
58.9331 907.635 703.953 156 156 156 0.143644 0.107431 0.983781 
59.1935 907.638 704.085 182 182 182 -0.0191668 0.0151317 0.999702 
59.4571 907.646 704.19 185 185 185 -0.127492 -0.0830454 0.988357 
59.7015 907.635 704.401 197 197 197 -0.146524 -0.0893438 0.985164 
59.9981 907.678 704.31 171 171 171 -0.121051 -0.0680192 0.990313 
60.2919 907.717 704.247 82 82 82 -0.0922691 -0.0249669 0.995421 
60.5733 907.742 704.256 51 51 51 -0.229498 -0.00117691 0.973308 
60.8448 907.759 704.319 46 46 46 -0.476597 -0.0508187 0.877652 
61.0719 907.738 704.59 45 45 45 -0.594751 -0.0945204 0.798334 
61.2791 907.703 704.935 90 90 90 -0.6193 -0.119722 0.775973 
61.5306 907.707 705.069 88 88 88 -0.568026 -0.157369 0.807825 
61.8142 907.736 705.064 97 97 97 -0.404739 -0.229797 0.885088 
62.1104 907.774 705.013 75 75 75 -0.104562 -0.305745 0.946354 
62.3898 907.799 705.036 65 65 65 0.0689206 -0.318595 0.945382 
62.6586 907.816 705.103 66 66 66 0.121641 -0.303434 0.945056 
62.9251 907.831 705.18 95 95 95 0.131742 -0.278122 0.951469 
63.3406 907.946 704.727 103 103 103 0.132254 -0.247485 0.959823 
63.6352 907.978 704.724 96 96 96 0.145841 -0.210373 0.966682 
63.8814 907.978 704.889 95 95 95 0.155752 -0.165882 0.973768 
64.1957 908.021 704.828 115 115 115 0.150298 -0.120971 0.981212 
64.5294 908.074 704.713 113 113 113 0.148249 -0.0818334 0.985558 
64.8375 908.111 704.691 108 108 108 0.107727 -0.0623683 0.992222 
65.1461 908.148 704.672 115 115 115 0.0117014 -0.079782 0.996744 
65.4402 908.175 704.704 110 110 110 -0.148474 -0.153465 0.976936 
65.7124 908.189 704.8 73 73 73 -0.298893 -0.244549 0.92242 
65.9769 908.2 704.92 64 64 64 -0.364484 -0.321783 0.873846 
66.2414 908.211 705.039 51 51 51 -0.386528 -0.399149 0.83143 
66.4833 908.21 705.219 50 50 50 -0.394626 -0.462276 0.794085 
66.7822 908.239 705.247 42 42 42 -0.382453 -0.515904 0.766533 
67.043 908.248 705.377 36 36 36 -0.441476 -0.527456 0.725872 
67.2496 908.231 705.639 36 36 36 -0.482222 -0.518931 0.705813 
67.5377 908.255 705.7 54 54 54 -0.53228 -0.482222 0.695802 
67.7297 908.232 705.989 62 62 62 -0.527947 -0.445196 0.723237 
67.988 908.242 706.12 66 66 66 -0.485505 -0.420117 0.766673 
68.2303 908.244 706.286 77 77 77 -0.408184 -0.392301 0.824309 
68.5235 908.271 706.339 68 68 68 -0.193701 -0.267885 0.943778 
68.7924 908.286 706.447 60 60 60 -0.0608641 -0.177819 0.982179 
69.1164 908.325 706.441 53 53 53 0.0511776 -0.0685998 0.996331 
70.3458 908.448 706.607 106 106 106 0.308766 0.00868017 0.951098 
70.7823 908.531 706.412 117 117 117 0.329715 -0.011283 0.944013 
71.2966 908.644 706.087 113 113 113 0.316923 -0.0187899 0.948265 
71.7351 908.723 705.918 106 106 106 0.254196 -0.0483592 0.965943 
72.1674 908.799 705.775 115 115 115 0.175483 -0.0459317 0.98341 
72.5339 908.847 705.758 93 93 93 0.240779 -0.0844617 0.966898 
58.9508 907.358 703.945 177 177 177 0.235546 0.103131 0.966376 
59.2322 907.384 703.942 195 195 195 0.0382257 -0.0216957 0.999034 
59.4916 907.388 704.077 189 189 189 -0.120276 -0.139714 0.98286 
59.7553 907.397 704.18 173 173 173 -0.143238 -0.153203 0.977758 
60.03 907.417 704.219 143 143 143 -0.128896 -0.146082 0.980839 
60.3216 907.452 704.17 82 82 82 -0.121666 -0.128893 0.984167 
60.6015 907.476 704.189 46 46 46 -0.26829 -0.199498 0.942455 
60.8675 907.487 704.281 60 60 60 -0.433636 -0.260182 0.862708 
61.1422 907.507 704.328 72 72 72 -0.500654 -0.304814 0.810206 
61.3721 907.491 704.58 73 73 73 -0.501148 -0.329326 0.800247 
61.5852 907.464 704.892 93 93 93 -0.428804 -0.362348 0.827545 
61.8617 907.487 704.921 94 94 94 -0.265463 -0.417156 0.869201 
62.1361 907.508 704.962 68 68 68 -0.0473498 -0.445088 0.894234 
62.4172 907.534 704.98 81 81 81 0.060559 -0.407764 0.911077 
62.7053 907.564 704.975 95 95 95 0.101742 -0.362201 0.92653 
62.995 907.594 704.97 107 107 107 0.104562 -0.305745 0.946354 
63.3558 907.669 704.717 93 93 93 0.0796423 -0.251569 0.964557 
63.6587 907.705 704.685 95 95 95 0.0717176 -0.193273 0.97852 
63.9459 907.731 704.713 110 110 110 0.0883009 -0.128331 0.987793 
64.2437 907.763 704.709 120 120 120 0.103008 -0.0622579 0.99273 
64.5427 907.794 704.708 80 80 80 0.134846 -0.0167164 0.990726 
64.8508 907.831 704.684 95 95 95 0.131508 0.00773578 0.991285 
65.1645 907.869 704.65 100 100 100 0.0659613 -0.00732903 0.997795 
65.4585 907.896 704.681 55 55 55 -0.0755446 -0.08682 0.993356 
65.7599 907.926 704.695 73 73 73 -0.220144 -0.190792 0.956627 
66.0336 907.942 704.791 78 78 78 -0.293188 -0.270079 0.917114 
66.2833 907.945 704.952 78 78 78 -0.337174 -0.34938 0.874212 
66.559 907.962 705.043 60 60 60 -0.354961 -0.42753 0.831397 
66.8659 907.994 705.055 51 51 51 -0.357194 -0.488539 0.796079 
67.1072 907.994 705.237 37 37 37 -0.419406 -0.527958 0.738484 
67.3686 908.004 705.367 32 32 32 -0.47199 -0.528695 0.705483 
67.6641 908.03 705.416 38 38 38 -0.52864 -0.508502 0.67968 
67.7392 907.954 705.985 51 51 51 -0.536274 -0.486155 0.689973 
67.972 907.953 706.174 70 70 70 -0.499307 -0.469448 0.728225 
68.2258 907.962 706.312 76 76 76 -0.424095 -0.43377 0.794976 
68.5235 907.99 706.354 97 97 97 -0.283753 -0.370831 0.88429 
68.8106 908.013 706.422 69 69 69 -0.167647 -0.320053 0.932449 
69.1117 908.042 706.465 60 60 60 -0.0856907 -0.264746 0.960503 
69.4204 908.073 706.495 58 58 58 0.0505029 -0.240197 0.96941 
70.0184 908.127 706.609 98 98 98 0.266642 -0.190068 0.944869 
71.3377 908.37 706.018 106 106 106 0.330873 -0.08903 0.939466 
71.8143 908.462 705.781 91 91 91 0.258704 -0.0853851 0.962175 
