ply
format ascii 1.0
element vertex 349
property float x
property float y
property float z
property uchar red
property uchar green
property uchar blue
property float nx
property float ny
property float nz
property uchar NIR
property uchar GREEN
end_header
58.0032005310058594 908.635009765625 704.15802001953125 116 116 116 0.132728993892669678 0.0810469985008239746 0.987833023071289062 103 92
58.2914009094238281 908.677001953125 704.08001708984375 131 131 131 0.159142002463340759 -0.04530319944024086 0.98621600866317749 113 154
58.5643997192382812 908.6939697265625 704.12701416015625 125 125 125 0.14573100209236145 -0.128586992621421814 0.980931997299194336 95 82
58.8540992736816406 908.7349853515625 704.05999755859375 113 113 113 0.0928423032164573669 -0.160364001989364624 0.982681989669799805 108 122
59.137298583984375 908.7650146484375 704.0469970703125 89 89 89 0.0056393798440694809 -0.161285996437072754 0.986891984939575195 70 59
59.4319992065429688 908.80902099609375 703.969970703125 138 138 138 -0.0588607005774974823 -0.135032996535301208 0.989090979099273682 125 137
59.7042999267578125 908.822998046875 704.0360107421875 155 155 155 -0.10973600298166275 -0.112094998359680176 0.987619996070861816 118 189
59.972900390625 908.8330078125 704.12298583984375 143 143 143 -0.0999493971467018127 -0.0838655978441238403 0.99145197868347168 119 130
60.2447013854980469 908.84698486328125 704.19000244140625 121 121 121 -0.0396419018507003784 -0.0589271001517772675 0.997475028038024902 121 142
60.5351982116699219 908.88299560546875 704.1610107421875 85 85 85 -0.0721974968910217285 0.0355600006878376007 0.996756017208099365 57 68
60.836700439453125 908.927978515625 704.08599853515625 81 81 81 -0.254269003868103027 0.15575699508190155 0.95450901985168457 72 83
61.1290016174316406 908.96197509765625 704.06597900390625 57 57 57 -0.447771012783050537 0.230670005083084106 0.863882005214691162 41 57
61.3954010009765625 908.969970703125 704.16998291015625 45 45 45 -0.527478992938995361 0.281847000122070312 0.801454007625579834 38 43
61.5876007080078125 908.90899658203125 704.594970703125 51 51 51 -0.519303977489471436 0.342451006174087524 0.78297501802444458 36 34
61.7765998840332031 908.8489990234375 705.010009765625 103 103 103 -0.441698014736175537 0.403149992227554321 0.801482021808624268 109 70
62.0376014709472656 908.8590087890625 705.1090087890625 86 86 86 -0.256985992193222046 0.442503005266189575 0.859156012535095215 71 46
62.2985000610351562 908.86798095703125 705.20697021484375 70 70 70 -0.113022997975349426 0.408836990594863892 0.905582010746002197 55 54
62.58599853515625 908.9010009765625 705.20098876953125 95 95 95 -0.0407101996243000031 0.382151007652282715 0.923202991485595703 89 64
62.9047012329101562 908.95697021484375 705.08697509765625 100 100 100 -0.00380001007579267025 0.358467012643814087 0.933534979820251465 106 61
63.1944999694824219 908.989013671875 705.0880126953125 81 81 81 0.0317588001489639282 0.321399003267288208 0.946411013603210449 72 53
63.5056991577148438 909.0369873046875 705.02099609375 100 100 100 0.0724693983793258667 0.270806998014450073 0.959901988506317139 94 64
63.8222007751464844 909.08697509765625 704.9439697265625 105 105 105 0.0909287035465240479 0.212997004389762878 0.972811996936798096 99 72
64.1323013305664062 909.1309814453125 704.89898681640625 97 97 97 0.0895223021507263184 0.14920400083065033 0.984745979309082031 89 59
64.4614028930664062 909.18701171875 704.801025390625 71 71 71 0.0487020984292030334 0.0638538971543312073 0.996770024299621582 51 37
64.7845993041992188 909.23699951171875 704.73297119140625 96 96 96 -0.0605062991380691528 -0.0715074017643928528 0.995603024959564209 99 61
65.0895004272460938 909.27301025390625 704.72802734375 64 64 64 -0.202538996934890747 -0.194597005844116211 0.95974498987197876 56 44
65.3628997802734375 909.28802490234375 704.822021484375 67 67 67 -0.380977988243103027 -0.264443010091781616 0.885959982872009277 78 67
65.6128997802734375 909.2869873046875 704.98297119140625 45 45 45 -0.488483995199203491 -0.282478004693984985 0.825585007667541504 41 31
65.8873977661132812 909.302001953125 705.073974609375 49 49 49 -0.544462025165557861 -0.314543008804321289 0.777575016021728516 57 39
66.097198486328125 909.2769775390625 705.34197998046875 37 37 37 -0.537791013717651367 -0.31118398904800415 0.783546984195709229 34 29
66.3011016845703125 909.25 705.61798095703125 48 48 48 -0.519152998924255371 -0.312761992216110229 0.795399010181427002 37 28
66.564697265625 909.260986328125 705.73199462890625 56 56 56 -0.513701021671295166 -0.259178012609481812 0.817885994911193848 46 36
66.8237991333007812 909.26898193359375 705.85797119140625 36 36 36 -0.487533003091812134 -0.212824001908302307 0.846768975257873535 38 30
67.0698013305664062 909.27001953125 706.0159912109375 40 40 40 -0.449551999568939209 -0.184242993593215942 0.874046981334686279 39 31
67.3029022216796875 909.26397705078125 706.2039794921875 47 47 47 -0.388606011867523193 -0.163698002696037292 0.906745970249176025 46 35
67.5578994750976562 909.27197265625 706.33697509765625 59 59 59 -0.333236008882522583 -0.08895149827003479 0.938637971878051758 57 37
67.8366012573242188 909.2919921875 706.416015625 118 118 118 -0.251316994428634644 -0.0230676997452974319 0.96763002872467041 130 79
68.1305999755859375 909.32098388671875 706.4630126953125 85 85 85 -0.16229499876499176 0.0675240010023117065 0.984429001808166504 72 49
68.4279022216796875 909.35101318359375 706.5059814453125 100 100 100 0.156912997364997864 0.266887009143829346 0.950868010520935059 96 66
68.766998291015625 909.4019775390625 706.4630126953125 111 111 111 0.254323005676269531 0.324079990386962891 0.91120302677154541 97 81
69.24310302734375 909.52301025390625 706.13800048828125 91 91 91 0.282427012920379639 0.360132008790969849 0.889123022556304932 76 51
69.6510009765625 909.60699462890625 705.9730224609375 89 89 89 0.260479986667633057 0.402011990547180176 0.877802014350891113 83 59
70.1343994140625 909.7249755859375 705.66900634765625 100 100 100 0.200490996241569519 0.447021007537841797 0.871765971183776855 94 71
70.4766998291015625 909.77197265625 705.66302490234375 93 93 93 0.109585002064704895 0.471074998378753662 0.875259995460510254 87 109
70.7617034912109375 909.78900146484375 705.7760009765625 65 65 65 -0.0146452002227306366 0.464653998613357544 0.885371029376983643 47 52
71.016998291015625 909.7919921875 705.947021484375 72 72 72 0.0321278013288974762 0.348264992237091064 0.936845004558563232 75 64
71.3774032592773438 909.844970703125 705.9210205078125 88 88 88 0.0628077015280723572 0.227832004427909851 0.971673011779785156 91 71
71.7931976318359375 909.9229736328125 705.801025390625 122 122 122 0.0591476000845432281 0.0881633013486862183 0.994347989559173584 102 123
72.1760025024414062 909.9840087890625 705.7509765625 114 114 114 0.0286855995655059814 -0.06268329918384552 0.997620999813079834 81 83
72.5221023559570312 910.0269775390625 705.7750244140625 128 128 128 -0.0197867006063461304 -0.192046999931335449 0.981185972690582275 95 111
72.8740005493164062 910.072021484375 705.79400634765625 126 126 126 -0.0358005017042160034 -0.262948989868164062 0.964145004749298096 111 114
73.2435989379882812 910.1240234375 705.78900146484375 112 112 112 -0.0289414003491401672 -0.310804992914199829 0.950033009052276611 111 111
57.1730995178222656 908.2459716796875 704.3270263671875 115 115 115 0.140395998954772949 0.467503994703292847 0.872771024703979492 99 97
57.4522018432617188 908.27899169921875 704.28497314453125 117 117 117 0.20705200731754303 0.409698009490966797 0.888413012027740479 96 83
57.7337989807128906 908.31500244140625 704.23101806640625 117 117 117 0.23707599937915802 0.317537993192672729 0.918130993843078613 92 110
58.0217018127441406 908.3590087890625 704.13897705078125 111 111 111 0.265540003776550293 0.183834999799728394 0.946411013603210449 109 102
58.3199005126953125 908.416015625 703.9840087890625 108 108 108 0.247644007205963135 0.0609776005148887634 0.966929972171783447 84 85
58.5904006958007812 908.42901611328125 704.052978515625 127 127 127 0.165255993604660034 -0.0312022008001804352 0.985756993293762207 104 180
58.8823013305664062 908.47100830078125 703.9730224609375 126 126 126 0.0485057011246681213 -0.059284798800945282 0.997062027454376221 98 140
59.1646003723144531 908.4990234375 703.968017578125 122 122 122 -0.0550930984318256378 -0.0529326014220714569 0.997076988220214844 120 169
59.4345016479492188 908.510986328125 704.04498291015625 156 156 156 -0.107447996735572815 -0.0343391001224517822 0.993616998195648193 139 199
59.7075004577636719 908.5269775390625 704.10302734375 155 155 155 -0.131222993135452271 -0.00551356002688407898 0.991338014602661133 114 188
59.9827003479003906 908.5460205078125 704.14801025390625 122 122 122 -0.104810997843742371 0.0297883003950119019 0.99404597282409668 75 101
60.2662010192871094 908.573974609375 704.1500244140625 60 60 60 -0.0581861995160579681 0.0713604018092155457 0.99575197696685791 41 48
60.5592002868652344 908.61102294921875 704.10797119140625 68 68 68 -0.133461996912956238 0.168386995792388916 0.976643979549407959 64 120
60.8586006164550781 908.65301513671875 704.04498291015625 50 50 50 -0.348183989524841309 0.234550997614860535 0.907608985900878906 37 48
61.1664009094238281 908.7020263671875 703.95098876953125 44 44 44 -0.523845016956329346 0.239516004920005798 0.817445993423461914 38 42
61.4575004577636719 908.73297119140625 703.94598388671875 52 52 52 -0.584794998168945312 0.246147006750106812 0.772933006286621094 42 44
61.50469970703125 908.5419921875 705.01202392578125 75 75 75 -0.570743024349212646 0.276675999164581299 0.773111999034881592 62 44
61.7405014038085938 908.530029296875 705.2130126953125 100 100 100 -0.472295999526977539 0.323814988136291504 0.819805026054382324 84 61
62.0248985290527344 908.56097412109375 705.2080078125 100 100 100 -0.253053009510040283 0.340817004442214966 0.905431985855102539 94 61
62.3107986450195312 908.593017578125 705.2030029296875 90 90 90 -0.0641058012843132019 0.257679998874664307 0.964101016521453857 101 66
62.5979995727539062 908.6240234375 705.197998046875 82 82 82 0.0318966992199420929 0.199650004506111145 0.97934800386428833 52 47
62.88690185546875 908.656982421875 705.1920166015625 93 93 93 0.063390098512172699 0.178210005164146423 0.981948018074035645 89 64
63.1963996887207031 908.7039794921875 705.1190185546875 84 84 84 0.0999559983611106873 0.148128002882003784 0.983904004096984863 79 57
63.4892005920410156 908.73699951171875 705.11297607421875 83 83 83 0.138836994767189026 0.112277001142501831 0.983929991722106934 70 40
63.8089981079101562 908.78900146484375 705.02197265625 101 101 101 0.15531100332736969 0.072320200502872467 0.98521500825881958 81 58
64.1377029418945312 908.844970703125 704.91302490234375 108 108 108 0.147707000374794006 0.0191680006682872772 0.988844990730285645 92 58
64.4701004028320312 908.90301513671875 704.802978515625 95 95 95 0.11378999799489975 -0.0254094991832971573 0.993179976940155029 92 61
64.795196533203125 908.9530029296875 704.72698974609375 102 102 102 0.0250158999115228653 -0.0946253985166549683 0.995199024677276611 87 89
65.0998001098632812 908.989013671875 704.7230224609375 81 81 81 -0.117753997445106506 -0.172293007373809814 0.977981984615325928 57 50
65.3654022216796875 908.99798583984375 704.8389892578125 84 84 84 -0.31837800145149231 -0.237702995538711548 0.917677998542785645 78 62
65.6125030517578125 908.99700927734375 705.00701904296875 66 66 66 -0.469482004642486572 -0.27735099196434021 0.83824998140335083 59 54
65.83489990234375 908.98101806640625 705.24200439453125 43 43 43 -0.529317021369934082 -0.321428000926971436 0.785179972648620605 41 37
66.080902099609375 908.97998046875 705.406005859375 39 39 39 -0.530986011028289795 -0.346996992826461792 0.773077011108398438 36 39
66.314300537109375 908.9730224609375 705.60101318359375 37 37 37 -0.514856994152069092 -0.356687992811203003 0.779549002647399902 35 29
66.5725021362304688 908.98101806640625 705.72802734375 39 39 39 -0.490832000970840454 -0.350136995315551758 0.797801971435546875 37 30
66.8365020751953125 908.99200439453125 705.84100341796875 38 38 38 -0.4659079909324646 -0.333243012428283691 0.819682002067565918 35 30
67.0770034790039062 908.99102783203125 706.01202392578125 43 43 43 -0.446862995624542236 -0.309846013784408569 0.839231014251708984 43 32
67.3097000122070312 908.98602294921875 706.20001220703125 44 44 44 -0.428407996892929077 -0.272899985313415527 0.861389994621276855 45 35
67.562103271484375 908.99200439453125 706.3389892578125 56 56 56 -0.380008012056350708 -0.208204001188278198 0.901246011257171631 60 41
67.8358001708984375 909.010009765625 706.427978515625 107 107 107 -0.315919995307922363 -0.131520003080368042 0.939625978469848633 114 71
68.1193008422851562 909.03302001953125 706.49700927734375 93 93 93 -0.192477002739906311 -0.022164100781083107 0.981051027774810791 97 60
68.3991012573242188 909.05401611328125 706.5780029296875 103 103 103 0.0512120015919208527 0.121771000325679779 0.991235971450805664 88 62
68.598602294921875 909.03399658203125 706.8330078125 97 97 97 0.190041005611419678 0.213962003588676453 0.95817798376083374 78 64
68.83270263671875 909.031982421875 707.01202392578125 86 86 86 0.236809998750686646 0.285023003816604614 0.92880702018737793 74 60
69.7422027587890625 909.36297607421875 705.78997802734375 86 86 86 0.220917001366615295 0.347979992628097534 0.911100983619689941 78 56
69.9448013305664062 909.34197998046875 706.0579833984375 87 87 87 0.170799002051353455 0.394703000783920288 0.902794003486633301 67 53
70.4206008911132812 909.4520263671875 705.77801513671875 105 105 105 0.113178998231887817 0.412196993827819824 0.904038012027740479 98 78
70.6241989135742188 909.4320068359375 706.0460205078125 113 113 113 0.0686305984854698181 0.394288986921310425 0.91641998291015625 91 96
70.93499755859375 909.46197509765625 706.10498046875 82 82 82 0.103215999901294708 0.333775997161865234 0.936985015869140625 69 71
71.3520965576171875 909.541015625 705.968994140625 91 91 91 0.140665993094444275 0.248466998338699341 0.958371996879577637 89 92
71.79229736328125 909.62799072265625 705.802001953125 106 106 106 0.139254003763198853 0.144182994961738586 0.979704022407531738 95 119
72.174896240234375 909.68701171875 705.75201416015625 96 96 96 0.0906872972846031189 0.031685899943113327 0.995374977588653564 76 74
72.5479965209960938 909.74102783203125 705.72698974609375 113 113 113 0.0157407000660896301 -0.0619131997227668762 0.997956991195678711 79 78
72.9016036987304688 909.7860107421875 705.7440185546875 115 115 115 -0.0372209995985031128 -0.125198006629943848 0.991433024406433105 88 116
57.4404983520507812 907.9530029296875 704.54998779296875 105 105 105 0.271474003791809082 0.443253993988037109 0.854300022125244141 96 88
57.7327003479003906 908.00897216796875 704.385009765625 108 108 108 0.317023992538452148 0.381348013877868652 0.868371009826660156 92 80
58.0327987670898438 908.072998046875 704.1820068359375 115 115 115 0.350416004657745361 0.281823992729187012 0.893187999725341797 93 114
58.3392982482910156 908.1400146484375 703.96002197265625 113 113 113 0.328767985105514526 0.177674993872642517 0.927546977996826172 94 92
58.6175003051757812 908.16400146484375 703.9730224609375 120 120 120 0.209230005741119385 0.0829491019248962402 0.974341988563537598 96 122
58.9019012451171875 908.19598388671875 703.94598388671875 131 131 131 0.0318366996943950653 0.0215668007731437683 0.999260008335113525 114 161
59.180999755859375 908.218994140625 703.96197509765625 134 134 134 -0.0847178027033805847 0.0182303991168737411 0.996237993240356445 114 137
59.4463005065917969 908.22698974609375 704.06597900390625 156 156 156 -0.131505995988845825 0.00994580984115600586 0.991266012191772461 135 183
59.707000732421875 908.22998046875 704.1929931640625 146 146 146 -0.143589004874229431 0.026004299521446228 0.989296019077301025 120 177
59.9858016967773438 908.25299072265625 704.21197509765625 153 153 153 -0.107726998627185822 0.062368299812078476 0.992222011089324951 135 205
60.2708015441894531 908.28302001953125 704.2020263671875 92 92 92 -0.0646424964070320129 0.105469003319740295 0.992318987846374512 101 103
60.5646018981933594 908.32098388671875 704.15301513671875 44 44 44 -0.160559996962547302 0.183680996298789978 0.969784021377563477 39 49
60.8554000854492188 908.35400390625 704.12799072265625 55 55 55 -0.407249003648757935 0.207300007343292236 0.889479994773864746 70 107
61.1341018676757812 908.3759765625 704.1669921875 42 42 42 -0.57785499095916748 0.170489996671676636 0.798134028911590576 41 45
61.1894989013671875 908.19598388671875 705.218994140625 55 55 55 -0.633195996284484863 0.148899003863334656 0.759534001350402832 45 35
61.4709014892578125 908.22601318359375 705.2139892578125 90 90 90 -0.620405972003936768 0.145713001489639282 0.7706260085105896 81 58
61.7537994384765625 908.2559814453125 705.208984375 110 110 110 -0.518657028675079346 0.155154004693031311 0.840785980224609375 100 67
62.0490989685058594 908.2960205078125 705.15802001953125 94 94 94 -0.243797004222869873 0.131676003336906433 0.960846006870269775 84 48
62.3366012573242188 908.3280029296875 705.14697265625 81 81 81 -0.00696441996842622757 0.0129338996484875679 0.999891996383666992 69 57
62.6105003356933594 908.3489990234375 705.1939697265625 83 83 83 0.0872467011213302612 -0.0474887005984783173 0.995054006576538086 75 57
62.899200439453125 908.3809814453125 705.18798828125 93 93 93 0.127079993486404419 -0.0560982003808021545 0.990305006504058838 68 46
63.2084999084472656 908.427001953125 705.114990234375 90 90 90 0.163910001516342163 -0.0601397007703781128 0.984640002250671387 74 49
63.5009994506835938 908.458984375 705.1090087890625 86 86 86 0.193463996052742004 -0.0588805004954338074 0.979339003562927246 107 53
63.815399169921875 908.50701904296875 705.03497314453125 85 85 85 0.197137996554374695 -0.0616811998188495636 0.978433012962341309 79 58
64.1421966552734375 908.55999755859375 704.9310302734375 104 104 104 0.180568993091583252 -0.0787715986371040344 0.980403006076812744 97 64
64.4787979125976562 908.6190185546875 704.8060302734375 109 109 109 0.145586997270584106 -0.0816709026694297791 0.985969007015228271 103 73
64.8066024780273438 908.6710205078125 704.72198486328125 110 110 110 0.0667816027998924255 -0.100737996399402618 0.992668986320495605 85 74
65.1165008544921875 908.708984375 704.70001220703125 139 139 139 -0.0692493990063667297 -0.144366994500160217 0.987097978591918945 131 151
65.41729736328125 908.74102783203125 704.7130126953125 114 114 114 -0.265733987092971802 -0.199643999338150024 0.943148016929626465 96 117
65.6709976196289062 908.7440185546875 704.864013671875 82 82 82 -0.428110986948013306 -0.255656003952026367 0.866810977458953857 67 80
65.9308013916015625 908.7509765625 704.99798583984375 58 58 58 -0.487897008657455444 -0.317369997501373291 0.813162028789520264 59 55
66.1150970458984375 908.7139892578125 705.333984375 46 46 46 -0.49716600775718689 -0.358796000480651855 0.789995014667510986 43 37
66.32330322265625 908.6929931640625 705.59698486328125 40 40 40 -0.487637996673583984 -0.393674999475479126 0.779249012470245361 41 32
66.619598388671875 908.7230224609375 705.625 37 37 37 -0.457305997610092163 -0.42801201343536377 0.779536008834838867 37 33
66.8656005859375 908.7249755859375 705.78497314453125 37 37 37 -0.460512012243270874 -0.424712985754013062 0.77945399284362793 36 33
67.08489990234375 908.7130126953125 706.00799560546875 39 39 39 -0.4745979905128479 -0.403326988220214844 0.782357990741729736 39 30
67.330596923828125 908.71502685546875 706.16400146484375 50 50 50 -0.486777007579803467 -0.361467987298965454 0.795229017734527588 41 30
67.56939697265625 908.71502685546875 706.33502197265625 67 67 67 -0.447293013334274292 -0.30702701210975647 0.840038001537322998 83 60
67.877197265625 908.7509765625 706.344970703125 86 86 86 -0.384487003087997437 -0.247912004590034485 0.889217972755432129 98 65
68.1548004150390625 908.77001953125 706.427978515625 79 79 79 -0.266317993402481079 -0.153902992606163025 0.951519012451171875 86 66
68.4054031372070312 908.7760009765625 706.573974609375 83 83 83 -0.0193197000771760941 0.0233869999647140503 0.999539971351623535 91 70
68.6332015991210938 908.77197265625 706.76800537109375 91 91 91 0.133248001337051392 0.16313500702381134 0.977563977241516113 79 68
68.9253997802734375 908.79901123046875 706.823974609375 86 86 86 0.192840993404388428 0.263960003852844238 0.945059001445770264 84 65
69.2788009643554688 908.85400390625 706.7559814453125 74 74 74 0.181153997778892517 0.332816988229751587 0.92542797327041626 65 49
69.63079833984375 908.90802001953125 706.70098876953125 85 85 85 0.150341004133224487 0.375149995088577271 0.914690971374511719 70 51
69.9723968505859375 908.95501708984375 706.67401123046875 110 110 110 0.13255000114440918 0.383697003126144409 0.91389697790145874 84 69
70.431396484375 909.05499267578125 706.426025390625 117 117 117 0.128503993153572083 0.366165995597839355 0.921634018421173096 92 76
70.821502685546875 909.12200927734375 706.32501220703125 104 104 104 0.179012000560760498 0.309453994035720825 0.933912992477416992 97 69
71.3210983276367188 909.2349853515625 706.030029296875 97 97 97 0.213424995541572571 0.227018997073173523 0.950217008590698242 84 81
71.794403076171875 909.333984375 705.79998779296875 122 122 122 0.206580996513366699 0.137292996048927307 0.968748986721038818 104 133
72.167999267578125 909.38800048828125 705.7659912109375 108 108 108 0.140826001763343811 0.0616841986775398254 0.988111019134521484 91 89
72.5323028564453125 909.43798828125 705.7550048828125 109 109 109 0.0375370010733604431 -0.00101451005320996046 0.99929499626159668 93 128
72.8809967041015625 909.47998046875 705.77899169921875 88 88 88 0.134582996368408203 -0.122459001839160919 0.983305990695953369 73 73
58.041900634765625 907.78399658203125 704.24298095703125 109 109 109 0.412117987871170044 0.334360003471374512 0.847563028335571289 92 84
58.3540992736816406 907.8590087890625 703.9730224609375 123 123 123 0.397374987602233887 0.259418994188308716 0.880223989486694336 105 125
58.6375007629394531 907.8900146484375 703.94500732421875 126 126 126 0.276154994964599609 0.172766998410224915 0.945456981658935547 98 115
58.9191017150878906 907.9169921875 703.93798828125 136 136 136 0.0663914978504180908 0.0911476016044616699 0.993622004985809326 111 137
59.1977005004882812 907.94000244140625 703.95599365234375 163 163 163 -0.0660160034894943237 0.0465358011424541473 0.996733009815216064 132 201
59.4527015686035156 907.93701171875 704.1209716796875 168 168 168 -0.131220996379852295 -0.00771886995062232018 0.991322994232177734 133 189
59.7041015625 907.9310302734375 704.2969970703125 156 156 156 -0.146741002798080444 -0.0123217003419995308 0.989098012447357178 122 178
59.9888992309570312 907.96197509765625 704.2769775390625 150 150 150 -0.110889002680778503 0.0208604000508785248 0.993614017963409424 130 144
60.2787017822265625 907.99700927734375 704.23797607421875 92 92 92 -0.0719496980309486389 0.067521996796131134 0.995119988918304443 71 96
60.5702018737792969 908.031982421875 704.197021484375 51 51 51 -0.185570999979972839 0.135076001286506653 0.973303020000457764 39 49
60.8445014953613281 908.04998779296875 704.25 46 46 46 -0.448725998401641846 0.126782998442649841 0.884630978107452393 49 67
61.125701904296875 908.07501220703125 704.27099609375 41 41 41 -0.603537023067474365 0.0763422995805740356 0.793672025203704834 35 37
61.2491989135742188 907.9630126953125 705.00897216796875 75 75 75 -0.647140979766845703 0.0469354987144470215 0.760923981666564941 92 56
61.4846992492675781 907.9530029296875 705.21002197265625 82 82 82 -0.622988998889923096 0.0236930996179580688 0.781871974468231201 67 43
61.7836990356445312 907.9959716796875 705.135986328125 102 102 102 -0.500853002071380615 -0.017550099641084671 0.865355014801025391 90 59
62.0737991333007812 908.031005859375 705.10797119140625 81 81 81 -0.188589006662368774 -0.0949108973145484924 0.97745901346206665 64 51
62.3628997802734375 908.06298828125 705.09197998046875 82 82 82 0.0363781005144119263 -0.184237003326416016 0.982208013534545898 116 67
62.6450996398925781 908.09002685546875 705.10699462890625 67 67 67 0.112813003361225128 -0.216753005981445312 0.969685971736907959 62 63
62.9492988586425781 908.13201904296875 705.0469970703125 81 81 81 0.143514007329940796 -0.215917006134986877 0.965807020664215088 70 52
63.2016983032226562 908.13702392578125 705.17901611328125 90 90 90 0.167646005749702454 -0.198835998773574829 0.965587973594665527 84 55
63.4934005737304688 908.16900634765625 705.17401123046875 93 93 93 0.188179001212120056 -0.172604992985725403 0.966849029064178467 74 55
63.8274993896484375 908.22802734375 705.031005859375 93 93 93 0.193002998828887939 -0.146989002823829651 0.970125973224639893 89 56
64.1576995849609375 908.28302001953125 704.91497802734375 97 97 97 0.178664997220039368 -0.126190006732940674 0.975784003734588623 91 61
64.4944992065429688 908.34100341796875 704.78997802734375 108 108 108 0.153233006596565247 -0.0977312996983528137 0.983344972133636475 106 70
64.818603515625 908.38897705078125 704.71600341796875 105 105 105 0.0881016999483108521 -0.0903899967670440674 0.992002010345458984 92 66
65.1334991455078125 908.42999267578125 704.67901611328125 145 145 145 -0.0275231003761291504 -0.10458800196647644 0.994135022163391113 122 165
65.43389892578125 908.46099853515625 704.6920166015625 131 131 131 -0.203143998980522156 -0.15656299889087677 0.966551005840301514 120 156
65.736297607421875 908.49200439453125 704.7039794921875 83 83 83 -0.364235997200012207 -0.229659005999565125 0.9025459885597229 67 86
65.9658966064453125 908.48199462890625 704.92401123046875 53 53 53 -0.432644009590148926 -0.305487006902694702 0.848231017589569092 41 37
66.1500015258789062 908.447998046875 705.26202392578125 52 52 52 -0.449248999357223511 -0.375707000494003296 0.810567021369934082 51 51
66.4087982177734375 908.45599365234375 705.39202880859375 45 45 45 -0.447124987840652466 -0.434118002653121948 0.782061994075775146 43 36
66.7065963745117188 908.4849853515625 705.41998291015625 41 41 41 -0.426542013883590698 -0.485374987125396729 0.763198971748352051 39 32
66.927001953125 908.4739990234375 705.64898681640625 36 36 36 -0.461261987686157227 -0.491019994020462036 0.739010989665985107 34 30
67.1865005493164062 908.48297119140625 705.7750244140625 41 41 41 -0.491557985544204712 -0.475006997585296631 0.729888975620269775 39 32
67.3925018310546875 908.46600341796875 706.031005859375 59 59 59 -0.526444017887115479 -0.434026986360549927 0.731079995632171631 52 51
67.652099609375 908.47601318359375 706.155029296875 66 66 66 -0.498111993074417114 -0.39102599024772644 0.773940026760101318 72 55
67.9458999633789062 908.50299072265625 706.20098876953125 68 68 68 -0.445903003215789795 -0.341910988092422485 0.827205002307891846 69 51
68.1958999633789062 908.50897216796875 706.3480224609375 68 68 68 -0.340528011322021484 -0.269769012928009033 0.900703012943267822 53 46
68.4637985229492188 908.52398681640625 706.45697021484375 71 71 71 -0.0980406031012535095 -0.0934270024299621582 0.990787029266357422 70 51
68.7322998046875 908.53900146484375 706.56402587890625 88 88 88 0.0475325994193553925 0.0369697995483875275 0.99818497896194458 105 71
69.0553970336914062 908.5789794921875 706.55902099609375 65 65 65 0.129688993096351624 0.154392004013061523 0.979461014270782471 57 43
70.067901611328125 908.71502685546875 706.49102783203125 101 101 101 0.23229999840259552 0.210565000772476196 0.949577987194061279 79 65
70.38800048828125 908.75 706.5159912109375 114 114 114 0.238314002752304077 0.20563100278377533 0.949168980121612549 80 68
70.8097000122070312 908.8289794921875 706.35302734375 109 109 109 0.275965988636016846 0.152117997407913208 0.94905400276184082 84 68
71.2910003662109375 908.9310302734375 706.09100341796875 93 93 93 0.278254002332687378 0.103202000260353088 0.954946994781494141 92 65
71.72979736328125 909.01300048828125 705.9219970703125 102 102 102 0.242118000984191895 0.0328501984477043152 0.969690024852752686 74 80
72.1604995727539062 909.09002685546875 705.781982421875 108 108 108 0.17301100492477417 0.00113078998401761055 0.98491901159286499 93 111
72.5236968994140625 909.13800048828125 705.77197265625 94 94 94 0.239059999585151672 -0.106106996536254883 0.965189993381500244 90 83
72.843902587890625 909.16802978515625 705.844970703125 96 96 96 0.367451012134552002 -0.266290009021759033 0.891106009483337402 82 101
58.3539009094238281 907.5579833984375 704.0999755859375 123 123 123 0.473257005214691162 0.252710014581680298 0.843899011611938477 107 77
58.6520004272460938 907.60797119140625 703.958984375 128 128 128 0.359474986791610718 0.196208000183105469 0.912293970584869385 107 132
58.9331016540527344 907.635009765625 703.9530029296875 156 156 156 0.143644005060195923 0.107431001961231232 0.983780980110168457 124 182
59.1935005187988281 907.63800048828125 704.08502197265625 182 182 182 -0.0191667992621660233 0.0151316998526453972 0.999701976776123047 146 224
59.4570999145507812 907.64599609375 704.19000244140625 185 185 185 -0.127491995692253113 -0.0830454006791114807 0.988357007503509521 141 228
59.7014999389648438 907.635009765625 704.4010009765625 197 197 197 -0.146523997187614441 -0.0893438011407852173 0.985163986682891846 149 219
59.9981002807617188 907.677978515625 704.30999755859375 171 171 171 -0.121050998568534851 -0.0680191963911056519 0.99031299352645874 151 208
60.291900634765625 907.71697998046875 704.24700927734375 82 82 82 -0.0922691002488136292 -0.0249668993055820465 0.995420992374420166 55 72
60.5732994079589844 907.74200439453125 704.2559814453125 51 51 51 -0.229497998952865601 -0.00117691000923514366 0.973308026790618896 49 58
60.8447990417480469 907.75897216796875 704.3189697265625 46 46 46 -0.476597011089324951 -0.0508187003433704376 0.877651989459991455 40 50
61.0718994140625 907.73797607421875 704.59002685546875 45 45 45 -0.59475100040435791 -0.0945203974843025208 0.798334002494812012 35 31
61.2790985107421875 907.7030029296875 704.93499755859375 90 90 90 -0.619300007820129395 -0.119722001254558563 0.775973021984100342 111 68
61.5306015014648438 907.70697021484375 705.0689697265625 88 88 88 -0.56802600622177124 -0.15736900269985199 0.807825028896331787 73 47
61.8142013549804688 907.73602294921875 705.06402587890625 97 97 97 -0.40473899245262146 -0.229797005653381348 0.885088026523590088 93 56
62.1104011535644531 907.77398681640625 705.01300048828125 75 75 75 -0.104561999440193176 -0.30574500560760498 0.9463539719581604 63 44
62.389801025390625 907.79901123046875 705.0360107421875 65 65 65 0.0689205974340438843 -0.318594992160797119 0.945381999015808105 73 92
62.658599853515625 907.81597900390625 705.10302734375 66 66 66 0.121641002595424652 -0.303434014320373535 0.945056021213531494 56 38
62.9250984191894531 907.83099365234375 705.17999267578125 95 95 95 0.131742000579833984 -0.278122007846832275 0.951469004154205322 93 62
63.3405990600585938 907.94598388671875 704.72698974609375 103 103 103 0.13225400447845459 -0.247484996914863586 0.959823012351989746 90 60
63.6352005004882812 907.97802734375 704.7239990234375 96 96 96 0.145841002464294434 -0.210372999310493469 0.966682016849517822 89 62
63.8814010620117188 907.97802734375 704.88897705078125 95 95 95 0.155752003192901611 -0.165882006287574768 0.973767995834350586 87 55
64.1957015991210938 908.02099609375 704.8280029296875 115 115 115 0.150297999382019043 -0.12097100168466568 0.981212019920349121 105 76
64.5294036865234375 908.073974609375 704.7130126953125 113 113 113 0.148249000310897827 -0.0818333998322486877 0.985557973384857178 101 108
64.8375015258789062 908.11102294921875 704.69097900390625 108 108 108 0.107726998627185822 -0.062368299812078476 0.992222011089324951 94 99
65.1461029052734375 908.14801025390625 704.6719970703125 115 115 115 0.0117014003917574883 -0.0797820016741752625 0.996743977069854736 82 83
65.4402008056640625 908.17498779296875 704.7039794921875 110 110 110 -0.148473992943763733 -0.153465002775192261 0.976935982704162598 107 152
65.71240234375 908.18902587890625 704.79998779296875 73 73 73 -0.298893004655838013 -0.244549006223678589 0.922420024871826172 56 52
65.976898193359375 908.20001220703125 704.91998291015625 64 64 64 -0.364484012126922607 -0.321783006191253662 0.873845994472503662 61 65
66.2414016723632812 908.21099853515625 705.03900146484375 51 51 51 -0.386527985334396362 -0.399149000644683838 0.831430017948150635 61 54
66.4832992553710938 908.21002197265625 705.218994140625 50 50 50 -0.394625991582870483 -0.46227601170539856 0.794085025787353516 53 51
66.7822036743164062 908.239013671875 705.24700927734375 42 42 42 -0.382452994585037231 -0.515904009342193604 0.766533017158508301 40 33
67.042999267578125 908.24798583984375 705.37701416015625 36 36 36 -0.441475987434387207 -0.527455985546112061 0.7258719801902771 36 32
67.249603271484375 908.23101806640625 705.63897705078125 36 36 36 -0.482221990823745728 -0.518930971622467041 0.705812990665435791 34 30
67.5376968383789062 908.2550048828125 705.70001220703125 54 54 54 -0.532280027866363525 -0.482221990823745728 0.695801973342895508 51 38
67.7296981811523438 908.23199462890625 705.989013671875 62 62 62 -0.527947008609771729 -0.445196002721786499 0.723236978054046631 59 46
67.9879989624023438 908.24200439453125 706.1199951171875 66 66 66 -0.485505014657974243 -0.420116990804672241 0.766673028469085693 53 46
68.2303009033203125 908.2440185546875 706.2860107421875 77 77 77 -0.4081839919090271 -0.392300993204116821 0.824308991432189941 82 68
68.52349853515625 908.27099609375 706.3389892578125 68 68 68 -0.193700999021530151 -0.267884999513626099 0.943777978420257568 58 47
68.7923965454101562 908.2860107421875 706.447021484375 60 60 60 -0.0608640983700752258 -0.177818998694419861 0.982178986072540283 57 61
69.1164016723632812 908.32501220703125 706.44097900390625 53 53 53 0.0511775985360145569 -0.068599797785282135 0.996330976486206055 61 44
70.3458023071289062 908.447998046875 706.60699462890625 106 106 106 0.308766007423400879 0.00868017040193080902 0.951098024845123291 90 73
70.7823028564453125 908.531005859375 706.4119873046875 117 117 117 0.32971501350402832 -0.0112829999998211861 0.944012999534606934 102 85
71.296600341796875 908.64398193359375 706.08697509765625 113 113 113 0.316922992467880249 -0.018789900466799736 0.948265016078948975 95 90
71.7350997924804688 908.7230224609375 705.91802978515625 106 106 106 0.254195988178253174 -0.0483592003583908081 0.965942978858947754 85 105
72.1673965454101562 908.79901123046875 705.7750244140625 115 115 115 0.175483003258705139 -0.0459317006170749664 0.983410000801086426 106 118
72.5338973999023438 908.84698486328125 705.75799560546875 93 93 93 0.240778997540473938 -0.084461696445941925 0.966898024082183838 79 73
58.9508018493652344 907.35797119140625 703.94500732421875 177 177 177 0.235545992851257324 0.103131003677845001 0.966376006603240967 137 195
59.2322006225585938 907.38397216796875 703.9420166015625 195 195 195 0.0382256992161273956 -0.021695699542760849 0.999033987522125244 168 229
59.4916000366210938 907.38800048828125 704.0770263671875 189 189 189 -0.120275996625423431 -0.13971400260925293 0.982860028743743896 152 218
59.7552986145019531 907.39697265625 704.17999267578125 173 173 173 -0.143237993121147156 -0.153202995657920837 0.97775799036026001 129 164
60.029998779296875 907.4169921875 704.218994140625 143 143 143 -0.128895998001098633 -0.146081998944282532 0.980839014053344727 96 127
60.3216018676757812 907.4520263671875 704.16998291015625 82 82 82 -0.121665999293327332 -0.128893002867698669 0.984166979789733887 63 87
60.60150146484375 907.47601318359375 704.18902587890625 46 46 46 -0.268290013074874878 -0.199497997760772705 0.942454993724822998 38 46
60.8675003051757812 907.48699951171875 704.281005859375 60 60 60 -0.433636009693145752 -0.260181993246078491 0.862707972526550293 53 59
61.1422004699707031 907.50701904296875 704.3280029296875 72 72 72 -0.500653982162475586 -0.304814010858535767 0.810205996036529541 80 51
61.372100830078125 907.49102783203125 704.58001708984375 73 73 73 -0.501147985458374023 -0.329326003789901733 0.800247013568878174 78 53
61.5852012634277344 907.4639892578125 704.89202880859375 93 93 93 -0.428804010152816772 -0.362347990274429321 0.827544987201690674 95 58
61.8616981506347656 907.48699951171875 704.9210205078125 94 94 94 -0.265462994575500488 -0.417156010866165161 0.869201004505157471 79 49
62.1361007690429688 907.50799560546875 704.96197509765625 68 68 68 -0.0473497994244098663 -0.445087999105453491 0.894234001636505127 53 40
62.4171981811523438 907.53399658203125 704.97998046875 81 81 81 0.0605590008199214935 -0.40776398777961731 0.911077022552490234 78 51
62.7052993774414062 907.56402587890625 704.9749755859375 95 95 95 0.101741999387741089 -0.362201005220413208 0.926530003547668457 84 45
62.9949989318847656 907.593994140625 704.969970703125 107 107 107 0.104561999440193176 -0.30574500560760498 0.9463539719581604 107 65
63.3558006286621094 907.66900634765625 704.71697998046875 93 93 93 0.0796423032879829407 -0.251569002866744995 0.964556992053985596 84 64
63.6586990356445312 907.70501708984375 704.68499755859375 95 95 95 0.0717175975441932678 -0.193272992968559265 0.978519976139068604 92 70
63.9458999633789062 907.73101806640625 704.7130126953125 110 110 110 0.0883008986711502075 -0.128331005573272705 0.987793028354644775 84 77
64.2436981201171875 907.76300048828125 704.708984375 120 120 120 0.103008002042770386 -0.0622579008340835571 0.992730021476745605 120 132
64.5427017211914062 907.79400634765625 704.7080078125 80 80 80 0.134846001863479614 -0.0167164001613855362 0.990725994110107422 76 63
64.850799560546875 907.83099365234375 704.68402099609375 95 95 95 0.131507992744445801 0.00773577997460961342 0.991285026073455811 84 79
65.1644973754882812 907.8690185546875 704.6500244140625 100 100 100 0.065961301326751709 -0.00732902996242046356 0.997794985771179199 100 123
65.4585037231445312 907.89599609375 704.6810302734375 55 55 55 -0.075544603168964386 -0.0868199989199638367 0.993355989456176758 43 39
65.7599029541015625 907.926025390625 704.69500732421875 73 73 73 -0.220144003629684448 -0.190791994333267212 0.956627011299133301 77 69
66.033599853515625 907.9420166015625 704.791015625 78 78 78 -0.293188005685806274 -0.270078986883163452 0.917114019393920898 66 54
66.2833023071289062 907.94500732421875 704.9520263671875 78 78 78 -0.337173998355865479 -0.349379986524581909 0.874212026596069336 87 76
66.5589981079101562 907.96197509765625 705.04302978515625 60 60 60 -0.354961007833480835 -0.427529990673065186 0.831396996974945068 52 40
66.8658981323242188 907.9940185546875 705.05499267578125 51 51 51 -0.357194006443023682 -0.488539010286331177 0.796078979969024658 42 39
67.1072006225585938 907.9940185546875 705.23699951171875 37 37 37 -0.419405996799468994 -0.5279579758644104 0.738484025001525879 37 32
67.3685989379882812 908.0040283203125 705.36700439453125 32 32 32 -0.471989989280700684 -0.528694987297058105 0.705483019351959229 32 29
67.6641006469726562 908.030029296875 705.416015625 38 38 38 -0.52863997220993042 -0.508502006530761719 0.679679989814758301 46 39
67.73919677734375 907.9539794921875 705.9849853515625 51 51 51 -0.5362740159034729 -0.486155003309249878 0.689972996711730957 44 37
67.9720001220703125 907.9530029296875 706.17401123046875 70 70 70 -0.499307006597518921 -0.469448000192642212 0.728224992752075195 70 51
68.225799560546875 907.96197509765625 706.31201171875 76 76 76 -0.424095004796981812 -0.43377000093460083 0.794975996017456055 74 56
68.52349853515625 907.989990234375 706.35400390625 97 97 97 -0.283753007650375366 -0.370831012725830078 0.884289979934692383 103 79
68.8106002807617188 908.01300048828125 706.4219970703125 69 69 69 -0.167647004127502441 -0.320053011178970337 0.932448983192443848 62 56
69.1117019653320312 908.0419921875 706.46502685546875 60 60 60 -0.0856906995177268982 -0.264746010303497314 0.960502982139587402 62 52
69.4204025268554688 908.072998046875 706.4949951171875 58 58 58 0.0505029000341892242 -0.24019700288772583 0.9694100022315979 64 51
70.018402099609375 908.12701416015625 706.6090087890625 98 98 98 0.266642004251480103 -0.19006800651550293 0.944868981838226318 99 77
71.3376998901367188 908.3699951171875 706.01800537109375 106 106 106 0.330873012542724609 -0.0890299975872039795 0.939465999603271484 119 92
71.814300537109375 908.46197509765625 705.781005859375 91 91 91 0.258704006671905518 -0.0853850990533828735 0.96217501163482666 85 97
72.1952972412109375 908.5150146484375 705.73101806640625 88 88 88 0.158114001154899597 -0.035777699202299118 0.986772000789642334 81 82
72.5435028076171875 908.5560302734375 705.74700927734375 86 86 86 0.225324004888534546 0.02265159972012043 0.974020004272460938 89 89
59.2587013244628906 907.11602783203125 703.8790283203125 193 193 193 0.129085004329681396 -0.0491209998726844788 0.990415990352630615 150 210
59.5321998596191406 907.13397216796875 703.92999267578125 175 175 175 -0.100033998489379883 -0.188953995704650879 0.976877987384796143 133 183
59.7910995483398438 907.13800048828125 704.0670166015625 178 178 178 -0.131339997053146362 -0.202748000621795654 0.970382988452911377 146 173
60.0783004760742188 907.16900634765625 704.03997802734375 203 203 203 -0.134105995297431946 -0.205630004405975342 0.969398021697998047 176 254
60.3558006286621094 907.19000244140625 704.072021484375 149 149 149 -0.137024000287055969 -0.20361599326133728 0.969415009021759033 135 177
60.6273002624511719 907.20599365234375 704.13702392578125 75 75 75 -0.229624003171920776 -0.254673004150390625 0.939369022846221924 49 65
60.8933982849121094 907.218994140625 704.22802734375 63 63 63 -0.354487001895904541 -0.309233993291854858 0.882447004318237305 51 45
61.1590995788574219 907.23101806640625 704.3189697265625 74 74 74 -0.408601999282836914 -0.355374008417129517 0.840686976909637451 69 48
61.4034004211425781 907.22698974609375 704.5050048828125 60 60 60 -0.409112989902496338 -0.380679994821548462 0.829282999038696289 56 40
61.6488990783691406 907.22601318359375 704.677001953125 73 73 73 -0.348982006311416626 -0.414709001779556274 0.840373992919921875 61 42
61.8958015441894531 907.22698974609375 704.8380126953125 97 97 97 -0.224031001329421997 -0.455579996109008789 0.861542999744415283 86 59
62.1738014221191406 907.2509765625 704.86602783203125 84 84 84 -0.0652152001857757568 -0.478706985712051392 0.875549018383026123 68 50
62.4546012878417969 907.2750244140625 704.88702392578125 86 86 86 0.0417969003319740295 -0.446283012628555298 0.893914997577667236 63 41
62.7527999877929688 907.31097412109375 704.84600830078125 105 105 105 0.0799798965454101562 -0.389055013656616211 0.9177359938621521 90 67
63.0806999206542969 907.364013671875 704.7039794921875 113 113 113 0.0692028999328613281 -0.322512000799179077 0.944032013416290283 103 65
63.3829002380371094 907.4000244140625 704.6669921875 94 94 94 0.0157194007188081741 -0.257555991411209106 0.966135978698730469 86 62
63.6759986877441406 907.42901611328125 704.66998291015625 82 82 82 -0.0149590997025370598 -0.178359001874923706 0.983852028846740723 71 55
63.9613990783691406 907.4539794921875 704.7030029296875 78 78 78 0.00106697005685418844 -0.0949601009488105774 0.995480000972747803 63 49
64.2156982421875 907.46002197265625 704.84100341796875 84 84 84 0.0402102991938591003 -0.0154654998332262039 0.999072015285491943 70 53
64.5211029052734375 907.4949951171875 704.81402587890625 89 89 89 0.101969003677368164 0.0252180006355047226 0.994467973709106445 80 73
64.8566970825195312 907.5460205078125 704.7030029296875 85 85 85 0.128530994057655334 0.0443602986633777618 0.990713000297546387 72 66
65.1714019775390625 907.58502197265625 704.66400146484375 76 76 76 0.0899214968085289001 0.0249179992824792862 0.995636999607086182 71 86
65.4760971069335938 907.61700439453125 704.66302490234375 53 53 53 -0.0176311992108821869 -0.0466707982122898102 0.998754978179931641 43 35
65.7724990844726562 907.64398193359375 704.69097900390625 70 70 70 -0.138726994395256042 -0.136271998286247253 0.980910003185272217 58 45
66.0510025024414062 907.6619873046875 704.77301025390625 90 90 90 -0.213460996747016907 -0.208091005682945251 0.954532980918884277 84 70
66.3364028930664062 907.68402099609375 704.83697509765625 92 92 92 -0.262356996536254883 -0.285295009613037109 0.92183297872543335 85 80
66.6119003295898438 907.70001220703125 704.9310302734375 73 73 73 -0.299409985542297363 -0.353574991226196289 0.886192977428436279 67 64
66.8974990844726562 907.72100830078125 704.9990234375 75 75 75 -0.32389599084854126 -0.41378098726272583 0.850808978080749512 64 56
67.1909027099609375 907.7459716796875 705.051025390625 51 51 51 -0.403946995735168457 -0.472081989049911499 0.783559024333953857 47 51
67.4485015869140625 907.7540283203125 705.1939697265625 32 32 32 -0.465362995862960815 -0.495171993970870972 0.733650028705596924 31 29
67.6832962036132812 907.75201416015625 705.3909912109375 34 34 34 -0.526798009872436523 -0.500039994716644287 0.687345981597900391 33 28
67.7494964599609375 907.677001953125 705.98101806640625 46 46 46 -0.53195500373840332 -0.505105018615722656 0.679627001285552979 48 35
68.024200439453125 907.69500732421875 706.072998046875 72 72 72 -0.508217990398406982 -0.494888007640838623 0.704840004444122314 79 68
68.2397994995117188 907.68798828125 706.29901123046875 75 75 75 -0.453523993492126465 -0.46334800124168396 0.761331021785736084 80 59
68.5417022705078125 907.71697998046875 706.33099365234375 62 62 62 -0.314722001552581787 -0.42634698748588562 0.848043978214263916 69 62
68.8395004272460938 907.7440185546875 706.3759765625 82 82 82 -0.187337994575500488 -0.367525994777679443 0.910950005054473877 72 62
69.1335983276367188 907.77001953125 706.43402099609375 78 78 78 -0.117679998278617859 -0.286927998065948486 0.950695991516113281 60 46
69.42919921875 907.7960205078125 706.49102783203125 71 71 71 -0.0106519004330039024 -0.226056993007659912 0.974056005477905273 60 53
69.7425994873046875 907.8280029296875 706.51702880859375 76 76 76 0.115258999168872833 -0.174748003482818604 0.977843999862670898 76 56
70.026702880859375 907.8489990234375 706.60498046875 91 91 91 0.224610000848770142 -0.124498002231121063 0.966463029384613037 111 73
70.766998291015625 908.04400634765625 705.80902099609375 98 98 98 0.283701002597808838 -0.0893851965665817261 0.954738020896911621 96 67
71.4648971557617188 908.1290283203125 705.78997802734375 102 102 102 0.314651012420654297 -0.0213109999895095825 0.948967993259429932 101 84
71.8351974487304688 908.177001953125 705.75201416015625 73 73 73 0.2523689866065979 -0.00598029978573322296 0.967612981796264648 98 62
72.1803970336914062 908.21600341796875 705.76702880859375 47 47 47 0.129565000534057617 0.0758714973926544189 0.988663971424102783 53 56
72.481201171875 908.239013671875 705.864990234375 43 43 43 0.173384994268417358 0.248652994632720947 0.95294797420501709 56 48
59.8328018188476562 906.88299560546875 703.9210205078125 196 196 196 -0.126122996211051941 -0.210204005241394043 0.969488024711608887 161 226
60.1162986755371094 906.90899658203125 703.91998291015625 200 200 200 -0.138019993901252747 -0.217994004487991333 0.966140985488891602 167 226
60.3860015869140625 906.92401123046875 703.99798583984375 177 177 177 -0.150854006409645081 -0.229561001062393188 0.961533010005950928 123 173
60.6498985290527344 906.93402099609375 704.10198974609375 163 163 163 -0.211826995015144348 -0.26720699667930603 0.940069019794464111 137 193
60.9135017395019531 906.94500732421875 704.20599365234375 93 93 93 -0.292663991451263428 -0.310312002897262573 0.904464006423950195 68 70
61.1764984130859375 906.95501708984375 704.30902099609375 64 64 64 -0.333746999502182007 -0.355082988739013672 0.873229026794433594 67 54
